44.790000000  4.490000000   769.39
44.790000000  4.510000000   672.98
44.790000000  4.530000000   512.70
44.790000000  4.550000000   478.85
44.790000000  4.570000000   622.58
44.790000000  4.590000000   463.85
44.790000000  4.610000000   419.14
44.790000000  4.630000000   438.43
44.790000000  4.650000000   568.14
44.790000000  4.670000000   581.45
44.790000000  4.690000000   519.36
44.790000000  4.710000000   454.26
44.790000000  4.730000000   306.62
44.790000000  4.750000000   222.71
44.790000000  4.770000000   157.66
44.790000000  4.790000000    91.96
44.790000000  4.810000000    95.94
44.790000000  4.830000000   100.53
44.790000000  4.850000000   104.14
44.790000000  4.870000000   135.98
44.790000000  4.890000000   167.84
44.790000000  4.910000000   148.97
44.790000000  4.930000000   161.06
44.790000000  4.950000000   192.95
44.790000000  4.970000000   247.95
44.790000000  4.990000000   311.70
44.770000000  4.010000000  1223.87
44.770000000  4.030000000  1207.86
44.770000000  4.050000000  1242.89
44.770000000  4.070000000  1231.95
44.770000000  4.090000000  1137.97
44.770000000  4.110000000  1145.85
44.770000000  4.130000000  1170.85
44.770000000  4.150000000  1182.80
44.770000000  4.170000000  1192.32
44.770000000  4.190000000  1234.65
44.770000000  4.210000000  1213.19
44.770000000  4.230000000  1155.61
44.770000000  4.250000000   956.11
44.770000000  4.270000000  1033.16
44.770000000  4.290000000  1281.03
44.770000000  4.310000000  1278.37
44.770000000  4.330000000  1002.99
44.770000000  4.350000000   940.50
44.770000000  4.370000000  1071.10
44.770000000  4.390000000  1130.75
44.770000000  4.410000000  1018.78
44.770000000  4.430000000   811.23
44.770000000  4.450000000   737.65
44.770000000  4.470000000   676.75
44.770000000  4.490000000   576.30
44.770000000  4.510000000   624.44
44.770000000  4.530000000   661.16
44.770000000  4.550000000   681.60
44.770000000  4.570000000   612.12
44.770000000  4.590000000   564.50
44.770000000  4.610000000   549.23
44.770000000  4.630000000   656.81
44.770000000  4.650000000   622.95
44.770000000  4.670000000   498.27
44.770000000  4.690000000   344.22
44.770000000  4.710000000   225.15
44.770000000  4.730000000   246.97
44.770000000  4.750000000   224.13
44.770000000  4.770000000    92.02
44.770000000  4.790000000    95.51
44.770000000  4.810000000   100.92
44.770000000  4.830000000   107.53
44.770000000  4.850000000   137.10
44.770000000  4.870000000   152.08
44.770000000  4.890000000   135.88
44.770000000  4.910000000   150.05
44.770000000  4.930000000   160.62
44.770000000  4.950000000   179.83
44.770000000  4.970000000   234.55
44.770000000  4.990000000   265.55
44.750000000  4.010000000  1273.46
44.750000000  4.030000000  1257.20
44.750000000  4.050000000  1244.03
44.750000000  4.070000000  1176.01
44.750000000  4.090000000  1160.98
44.750000000  4.110000000  1161.30
44.750000000  4.130000000  1225.27
44.750000000  4.150000000  1296.82
44.750000000  4.170000000  1253.87
44.750000000  4.190000000  1266.30
44.750000000  4.210000000  1134.06
44.750000000  4.230000000   828.64
44.750000000  4.250000000   708.14
44.750000000  4.270000000   944.98
44.750000000  4.290000000  1018.27
44.750000000  4.310000000  1136.31
44.750000000  4.330000000   862.63
44.750000000  4.350000000   742.88
44.750000000  4.370000000   779.65
44.750000000  4.390000000   787.98
44.750000000  4.410000000   784.53
44.750000000  4.430000000   817.03
44.750000000  4.450000000   833.95
44.750000000  4.470000000   734.85
44.750000000  4.490000000   714.08
44.750000000  4.510000000   719.41
44.750000000  4.530000000   576.30
44.750000000  4.550000000   481.93
44.750000000  4.570000000   489.61
44.750000000  4.590000000   464.69
44.750000000  4.610000000   411.25
44.750000000  4.630000000   390.71
44.750000000  4.650000000   326.55
44.750000000  4.670000000   242.84
44.750000000  4.690000000   212.59
44.750000000  4.710000000   231.60
44.750000000  4.730000000   265.10
44.750000000  4.750000000   109.41
44.750000000  4.770000000    89.23
44.750000000  4.790000000    95.40
44.750000000  4.810000000   107.20
44.750000000  4.830000000   166.72
44.750000000  4.850000000   186.60
44.750000000  4.870000000   172.54
44.750000000  4.890000000   142.16
44.750000000  4.910000000   137.23
44.750000000  4.930000000   142.97
44.750000000  4.950000000   152.07
44.750000000  4.970000000   169.25
44.750000000  4.990000000   204.29
44.730000000  4.010000000  1254.38
44.730000000  4.030000000  1297.44
44.730000000  4.050000000  1248.28
44.730000000  4.070000000  1273.34
44.730000000  4.090000000  1195.66
44.730000000  4.110000000  1189.05
44.730000000  4.130000000  1172.77
44.730000000  4.150000000  1095.72
44.730000000  4.170000000  1184.08
44.730000000  4.190000000  1084.56
44.730000000  4.210000000   948.99
44.730000000  4.230000000   846.54
44.730000000  4.250000000   634.91
44.730000000  4.270000000   715.80
44.730000000  4.290000000   831.94
44.730000000  4.310000000   833.59
44.730000000  4.330000000   851.85
44.730000000  4.350000000   587.94
44.730000000  4.370000000   598.36
44.730000000  4.390000000   707.07
44.730000000  4.410000000   626.31
44.730000000  4.430000000   691.58
44.730000000  4.450000000   711.37
44.730000000  4.470000000   862.75
44.730000000  4.490000000   825.87
44.730000000  4.510000000   652.00
44.730000000  4.530000000   616.59
44.730000000  4.550000000   473.21
44.730000000  4.570000000   378.09
44.730000000  4.590000000   306.87
44.730000000  4.610000000   271.01
44.730000000  4.630000000   296.28
44.730000000  4.650000000   297.18
44.730000000  4.670000000   275.77
44.730000000  4.690000000   269.84
44.730000000  4.710000000   222.96
44.730000000  4.730000000   180.59
44.730000000  4.750000000    90.97
44.730000000  4.770000000    87.17
44.730000000  4.790000000   110.31
44.730000000  4.810000000   144.40
44.730000000  4.830000000   237.59
44.730000000  4.850000000   341.82
44.730000000  4.870000000   310.30
44.730000000  4.890000000   243.91
44.730000000  4.910000000   195.26
44.730000000  4.930000000   176.78
44.730000000  4.950000000   173.01
44.730000000  4.970000000   173.86
44.730000000  4.990000000   179.54
44.710000000  4.010000000  1261.39
44.710000000  4.030000000  1356.81
44.710000000  4.050000000  1361.94
44.710000000  4.070000000  1295.10
44.710000000  4.090000000  1284.16
44.710000000  4.110000000  1245.16
44.710000000  4.130000000  1021.30
44.710000000  4.150000000   907.51
44.710000000  4.170000000   810.37
44.710000000  4.190000000   746.39
44.710000000  4.210000000   606.69
44.710000000  4.230000000   697.67
44.710000000  4.250000000   683.87
44.710000000  4.270000000   526.92
44.710000000  4.290000000   762.95
44.710000000  4.310000000   711.61
44.710000000  4.330000000   634.61
44.710000000  4.350000000   597.98
44.710000000  4.370000000   524.38
44.710000000  4.390000000   602.53
44.710000000  4.410000000   579.75
44.710000000  4.430000000   566.65
44.710000000  4.450000000   631.26
44.710000000  4.470000000   617.55
44.710000000  4.490000000   773.66
44.710000000  4.510000000   732.52
44.710000000  4.530000000   557.24
44.710000000  4.550000000   507.70
44.710000000  4.570000000   403.88
44.710000000  4.590000000   475.53
44.710000000  4.610000000   408.63
44.710000000  4.630000000   287.97
44.710000000  4.650000000   227.69
44.710000000  4.670000000   178.99
44.710000000  4.690000000   162.29
44.710000000  4.710000000   148.53
44.710000000  4.730000000   156.99
44.710000000  4.750000000   212.31
44.710000000  4.770000000    95.69
44.710000000  4.790000000   100.27
44.710000000  4.810000000   143.17
44.710000000  4.830000000   192.85
44.710000000  4.850000000   302.48
44.710000000  4.870000000   334.16
44.710000000  4.890000000   353.57
44.710000000  4.910000000   288.30
44.710000000  4.930000000   244.66
44.710000000  4.950000000   229.82
44.710000000  4.970000000   256.96
44.710000000  4.990000000   247.85
44.690000000  4.010000000  1310.12
44.690000000  4.030000000  1249.10
44.690000000  4.050000000  1137.23
44.690000000  4.070000000  1180.18
44.690000000  4.090000000  1248.21
44.690000000  4.110000000  1195.32
44.690000000  4.130000000  1166.97
44.690000000  4.150000000  1000.94
44.690000000  4.170000000   827.99
44.690000000  4.190000000   794.70
44.690000000  4.210000000   666.16
44.690000000  4.230000000   603.00
44.690000000  4.250000000   482.80
44.690000000  4.270000000   483.70
44.690000000  4.290000000   553.41
44.690000000  4.310000000   773.19
44.690000000  4.330000000   634.73
44.690000000  4.350000000   493.79
44.690000000  4.370000000   443.48
44.690000000  4.390000000   499.13
44.690000000  4.410000000   435.19
44.690000000  4.430000000   459.31
44.690000000  4.450000000   471.06
44.690000000  4.470000000   551.82
44.690000000  4.490000000   783.32
44.690000000  4.510000000   806.84
44.690000000  4.530000000   830.39
44.690000000  4.550000000   746.16
44.690000000  4.570000000   720.05
44.690000000  4.590000000   702.60
44.690000000  4.610000000   632.31
44.690000000  4.630000000   381.96
44.690000000  4.650000000   297.06
44.690000000  4.670000000   253.85
44.690000000  4.690000000   337.67
44.690000000  4.710000000   199.13
44.690000000  4.730000000   254.25
44.690000000  4.750000000   316.75
44.690000000  4.770000000   140.84
44.690000000  4.790000000    87.29
44.690000000  4.810000000   124.67
44.690000000  4.830000000   224.93
44.690000000  4.850000000   321.22
44.690000000  4.870000000   408.88
44.690000000  4.890000000   376.07
44.690000000  4.910000000   366.09
44.690000000  4.930000000   268.19
44.690000000  4.950000000   286.84
44.690000000  4.970000000   330.16
44.690000000  4.990000000   326.45
44.670000000  4.010000000  1431.00
44.670000000  4.030000000  1333.87
44.670000000  4.050000000  1298.51
44.670000000  4.070000000   988.61
44.670000000  4.090000000   778.09
44.670000000  4.110000000   757.14
44.670000000  4.130000000   750.97
44.670000000  4.150000000   643.59
44.670000000  4.170000000   577.39
44.670000000  4.190000000   581.00
44.670000000  4.210000000   553.17
44.670000000  4.230000000   534.92
44.670000000  4.250000000   488.72
44.670000000  4.270000000   409.52
44.670000000  4.290000000   379.26
44.670000000  4.310000000   476.99
44.670000000  4.330000000   470.54
44.670000000  4.350000000   415.25
44.670000000  4.370000000   352.05
44.670000000  4.390000000   373.47
44.670000000  4.410000000   367.87
44.670000000  4.430000000   410.23
44.670000000  4.450000000   401.48
44.670000000  4.470000000   516.29
44.670000000  4.490000000   694.36
44.670000000  4.510000000   723.71
44.670000000  4.530000000   759.83
44.670000000  4.550000000   769.91
44.670000000  4.570000000   746.32
44.670000000  4.590000000   634.73
44.670000000  4.610000000   553.39
44.670000000  4.630000000   501.83
44.670000000  4.650000000   538.34
44.670000000  4.670000000   363.69
44.670000000  4.690000000   296.11
44.670000000  4.710000000   223.96
44.670000000  4.730000000   328.49
44.670000000  4.750000000   295.66
44.670000000  4.770000000   127.85
44.670000000  4.790000000    86.33
44.670000000  4.810000000   143.90
44.670000000  4.830000000   292.15
44.670000000  4.850000000   437.16
44.670000000  4.870000000   485.44
44.670000000  4.890000000   407.79
44.670000000  4.910000000   344.29
44.670000000  4.930000000   363.53
44.670000000  4.950000000   367.32
44.670000000  4.970000000   352.44
44.670000000  4.990000000   322.31
44.650000000  4.010000000  1237.02
44.650000000  4.030000000  1316.58
44.650000000  4.050000000  1395.13
44.650000000  4.070000000  1305.48
44.650000000  4.090000000  1175.41
44.650000000  4.110000000  1064.71
44.650000000  4.130000000  1097.91
44.650000000  4.150000000   897.58
44.650000000  4.170000000   991.14
44.650000000  4.190000000   934.31
44.650000000  4.210000000   887.94
44.650000000  4.230000000   745.21
44.650000000  4.250000000   571.74
44.650000000  4.270000000   463.01
44.650000000  4.290000000   419.23
44.650000000  4.310000000   335.63
44.650000000  4.330000000   313.04
44.650000000  4.350000000   349.21
44.650000000  4.370000000   301.44
44.650000000  4.390000000   329.87
44.650000000  4.410000000   316.24
44.650000000  4.430000000   324.42
44.650000000  4.450000000   368.39
44.650000000  4.470000000   467.02
44.650000000  4.490000000   572.64
44.650000000  4.510000000   545.40
44.650000000  4.530000000   687.28
44.650000000  4.550000000   698.67
44.650000000  4.570000000   731.67
44.650000000  4.590000000   685.63
44.650000000  4.610000000   603.28
44.650000000  4.630000000   429.02
44.650000000  4.650000000   418.28
44.650000000  4.670000000   404.32
44.650000000  4.690000000   225.62
44.650000000  4.710000000   349.14
44.650000000  4.730000000   385.17
44.650000000  4.750000000   234.91
44.650000000  4.770000000    82.18
44.650000000  4.790000000   117.56
44.650000000  4.810000000   236.02
44.650000000  4.830000000   306.93
44.650000000  4.850000000   496.86
44.650000000  4.870000000   383.96
44.650000000  4.890000000   212.84
44.650000000  4.910000000   187.28
44.650000000  4.930000000   234.16
44.650000000  4.950000000   340.09
44.650000000  4.970000000   361.53
44.650000000  4.990000000   393.14
44.630000000  4.010000000  1214.78
44.630000000  4.030000000  1208.66
44.630000000  4.050000000  1219.58
44.630000000  4.070000000  1317.59
44.630000000  4.090000000  1355.55
44.630000000  4.110000000  1216.69
44.630000000  4.130000000  1041.12
44.630000000  4.150000000   917.83
44.630000000  4.170000000   795.35
44.630000000  4.190000000   707.82
44.630000000  4.210000000   589.38
44.630000000  4.230000000   553.21
44.630000000  4.250000000   463.43
44.630000000  4.270000000   440.90
44.630000000  4.290000000   401.47
44.630000000  4.310000000   401.47
44.630000000  4.330000000   456.95
44.630000000  4.350000000   413.46
44.630000000  4.370000000   330.99
44.630000000  4.390000000   250.22
44.630000000  4.410000000   232.91
44.630000000  4.430000000   275.40
44.630000000  4.450000000   365.25
44.630000000  4.470000000   365.03
44.630000000  4.490000000   403.09
44.630000000  4.510000000   550.16
44.630000000  4.530000000   631.28
44.630000000  4.550000000   618.51
44.630000000  4.570000000   646.31
44.630000000  4.590000000   621.72
44.630000000  4.610000000   597.07
44.630000000  4.630000000   509.06
44.630000000  4.650000000   304.66
44.630000000  4.670000000   298.70
44.630000000  4.690000000   241.46
44.630000000  4.710000000   323.35
44.630000000  4.730000000   213.41
44.630000000  4.750000000   100.82
44.630000000  4.770000000   125.31
44.630000000  4.790000000   175.00
44.630000000  4.810000000   270.97
44.630000000  4.830000000   258.11
44.630000000  4.850000000   297.86
44.630000000  4.870000000   227.04
44.630000000  4.890000000   170.15
44.630000000  4.910000000   161.65
44.630000000  4.930000000   171.67
44.630000000  4.950000000   202.53
44.630000000  4.970000000   223.73
44.630000000  4.990000000   330.11
44.610000000  4.010000000   960.67
44.610000000  4.030000000  1142.64
44.610000000  4.050000000  1311.12
44.610000000  4.070000000  1318.83
44.610000000  4.090000000  1296.65
44.610000000  4.110000000  1230.59
44.610000000  4.130000000  1243.74
44.610000000  4.150000000  1209.20
44.610000000  4.170000000  1064.74
44.610000000  4.190000000  1048.85
44.610000000  4.210000000   842.13
44.610000000  4.230000000   691.54
44.610000000  4.250000000   705.79
44.610000000  4.270000000   680.23
44.610000000  4.290000000   579.96
44.610000000  4.310000000   493.43
44.610000000  4.330000000   447.88
44.610000000  4.350000000   373.24
44.610000000  4.370000000   280.98
44.610000000  4.390000000   238.74
44.610000000  4.410000000   198.41
44.610000000  4.430000000   251.78
44.610000000  4.450000000   307.63
44.610000000  4.470000000   288.04
44.610000000  4.490000000   378.18
44.610000000  4.510000000   546.61
44.610000000  4.530000000   458.45
44.610000000  4.550000000   485.54
44.610000000  4.570000000   555.54
44.610000000  4.590000000   496.25
44.610000000  4.610000000   535.65
44.610000000  4.630000000   622.11
44.610000000  4.650000000   580.76
44.610000000  4.670000000   398.28
44.610000000  4.690000000   287.48
44.610000000  4.710000000   175.24
44.610000000  4.730000000    84.93
44.610000000  4.750000000    82.31
44.610000000  4.770000000   176.28
44.610000000  4.790000000   171.65
44.610000000  4.810000000   206.29
44.610000000  4.830000000   174.47
44.610000000  4.850000000   153.64
44.610000000  4.870000000   150.32
44.610000000  4.890000000   155.64
44.610000000  4.910000000   169.31
44.610000000  4.930000000   180.52
44.610000000  4.950000000   190.29
44.610000000  4.970000000   212.99
44.610000000  4.990000000   302.55
44.590000000  4.010000000   986.99
44.590000000  4.030000000  1027.78
44.590000000  4.050000000  1135.33
44.590000000  4.070000000  1098.58
44.590000000  4.090000000   932.72
44.590000000  4.110000000   770.75
44.590000000  4.130000000   677.49
44.590000000  4.150000000   668.55
44.590000000  4.170000000   723.32
44.590000000  4.190000000   668.00
44.590000000  4.210000000   872.47
44.590000000  4.230000000   913.32
44.590000000  4.250000000   648.57
44.590000000  4.270000000   552.98
44.590000000  4.290000000   596.30
44.590000000  4.310000000   405.25
44.590000000  4.330000000   420.79
44.590000000  4.350000000   339.81
44.590000000  4.370000000   234.97
44.590000000  4.390000000   187.89
44.590000000  4.410000000   196.19
44.590000000  4.430000000   288.64
44.590000000  4.450000000   277.88
44.590000000  4.470000000   272.19
44.590000000  4.490000000   318.89
44.590000000  4.510000000   317.02
44.590000000  4.530000000   335.40
44.590000000  4.550000000   333.18
44.590000000  4.570000000   331.57
44.590000000  4.590000000   350.08
44.590000000  4.610000000   448.83
44.590000000  4.630000000   404.82
44.590000000  4.650000000   482.08
44.590000000  4.670000000   376.54
44.590000000  4.690000000   265.50
44.590000000  4.710000000   111.54
44.590000000  4.730000000    73.31
44.590000000  4.750000000    87.77
44.590000000  4.770000000   143.03
44.590000000  4.790000000   148.80
44.590000000  4.810000000   113.31
44.590000000  4.830000000   120.83
44.590000000  4.850000000   132.85
44.590000000  4.870000000   154.52
44.590000000  4.890000000   161.77
44.590000000  4.910000000   171.65
44.590000000  4.930000000   189.64
44.590000000  4.950000000   213.08
44.590000000  4.970000000   230.59
44.590000000  4.990000000   248.63
44.570000000  4.010000000  1118.32
44.570000000  4.030000000  1125.50
44.570000000  4.050000000  1053.44
44.570000000  4.070000000  1104.10
44.570000000  4.090000000   856.85
44.570000000  4.110000000   734.08
44.570000000  4.130000000   825.47
44.570000000  4.150000000   679.73
44.570000000  4.170000000   537.40
44.570000000  4.190000000   475.15
44.570000000  4.210000000   503.45
44.570000000  4.230000000   491.61
44.570000000  4.250000000   518.49
44.570000000  4.270000000   416.08
44.570000000  4.290000000   375.75
44.570000000  4.310000000   376.67
44.570000000  4.330000000   367.31
44.570000000  4.350000000   295.10
44.570000000  4.370000000   219.20
44.570000000  4.390000000   195.75
44.570000000  4.410000000   223.95
44.570000000  4.430000000   282.89
44.570000000  4.450000000   234.63
44.570000000  4.470000000   232.18
44.570000000  4.490000000   261.21
44.570000000  4.510000000   323.50
44.570000000  4.530000000   371.15
44.570000000  4.550000000   420.70
44.570000000  4.570000000   334.94
44.570000000  4.590000000   232.31
44.570000000  4.610000000   239.55
44.570000000  4.630000000   299.11
44.570000000  4.650000000   281.74
44.570000000  4.670000000   267.42
44.570000000  4.690000000   115.24
44.570000000  4.710000000    71.16
44.570000000  4.730000000    72.94
44.570000000  4.750000000    81.92
44.570000000  4.770000000   122.17
44.570000000  4.790000000   113.30
44.570000000  4.810000000   109.87
44.570000000  4.830000000   125.15
44.570000000  4.850000000   141.75
44.570000000  4.870000000   164.71
44.570000000  4.890000000   182.45
44.570000000  4.910000000   191.09
44.570000000  4.930000000   200.11
44.570000000  4.950000000   225.41
44.570000000  4.970000000   291.04
44.570000000  4.990000000   363.72
44.550000000  4.010000000  1088.00
44.550000000  4.030000000   973.72
44.550000000  4.050000000   717.37
44.550000000  4.070000000   763.80
44.550000000  4.090000000   786.21
44.550000000  4.110000000   550.17
44.550000000  4.130000000   602.60
44.550000000  4.150000000   695.91
44.550000000  4.170000000   641.11
44.550000000  4.190000000   411.26
44.550000000  4.210000000   566.71
44.550000000  4.230000000   516.82
44.550000000  4.250000000   440.67
44.550000000  4.270000000   400.14
44.550000000  4.290000000   334.18
44.550000000  4.310000000   279.55
44.550000000  4.330000000   249.68
44.550000000  4.350000000   234.52
44.550000000  4.370000000   281.07
44.550000000  4.390000000   256.46
44.550000000  4.410000000   192.39
44.550000000  4.430000000   202.72
44.550000000  4.450000000   208.50
44.550000000  4.470000000   303.45
44.550000000  4.490000000   316.40
44.550000000  4.510000000   356.69
44.550000000  4.530000000   379.32
44.550000000  4.550000000   443.81
44.550000000  4.570000000   348.68
44.550000000  4.590000000   216.94
44.550000000  4.610000000   229.53
44.550000000  4.630000000   331.39
44.550000000  4.650000000   238.24
44.550000000  4.670000000   161.91
44.550000000  4.690000000    80.92
44.550000000  4.710000000    70.89
44.550000000  4.730000000    77.50
44.550000000  4.750000000    87.53
44.550000000  4.770000000   103.42
44.550000000  4.790000000   126.26
44.550000000  4.810000000   125.35
44.550000000  4.830000000   132.33
44.550000000  4.850000000   145.69
44.550000000  4.870000000   161.53
44.550000000  4.890000000   175.09
44.550000000  4.910000000   193.09
44.550000000  4.930000000   213.74
44.550000000  4.950000000   260.82
44.550000000  4.970000000   397.88
44.550000000  4.990000000   516.94
44.530000000  4.010000000  1042.46
44.530000000  4.030000000  1006.36
44.530000000  4.050000000   646.30
44.530000000  4.070000000   563.31
44.530000000  4.090000000   522.88
44.530000000  4.110000000   462.29
44.530000000  4.130000000   443.01
44.530000000  4.150000000   561.76
44.530000000  4.170000000   452.70
44.530000000  4.190000000   370.53
44.530000000  4.210000000   493.38
44.530000000  4.230000000   475.18
44.530000000  4.250000000   402.26
44.530000000  4.270000000   346.20
44.530000000  4.290000000   257.86
44.530000000  4.310000000   218.01
44.530000000  4.330000000   197.63
44.530000000  4.350000000   240.19
44.530000000  4.370000000   253.94
44.530000000  4.390000000   209.22
44.530000000  4.410000000   164.89
44.530000000  4.430000000   212.20
44.530000000  4.450000000   300.40
44.530000000  4.470000000   361.09
44.530000000  4.490000000   308.63
44.530000000  4.510000000   325.30
44.530000000  4.530000000   364.20
44.530000000  4.550000000   405.32
44.530000000  4.570000000   256.88
44.530000000  4.590000000   222.66
44.530000000  4.610000000   196.95
44.530000000  4.630000000   238.69
44.530000000  4.650000000   264.29
44.530000000  4.670000000   197.35
44.530000000  4.690000000   100.67
44.530000000  4.710000000    68.38
44.530000000  4.730000000    78.65
44.530000000  4.750000000    87.99
44.530000000  4.770000000   130.86
44.530000000  4.790000000   154.73
44.530000000  4.810000000   161.91
44.530000000  4.830000000   183.39
44.530000000  4.850000000   209.61
44.530000000  4.870000000   225.95
44.530000000  4.890000000   221.77
44.530000000  4.910000000   225.78
44.530000000  4.930000000   273.05
44.530000000  4.950000000   353.53
44.530000000  4.970000000   327.04
44.530000000  4.990000000   338.11
44.510000000  4.010000000  1008.36
44.510000000  4.030000000   803.80
44.510000000  4.050000000   828.69
44.510000000  4.070000000   792.75
44.510000000  4.090000000   784.66
44.510000000  4.110000000   730.63
44.510000000  4.130000000   638.19
44.510000000  4.150000000   487.12
44.510000000  4.170000000   518.43
44.510000000  4.190000000   398.53
44.510000000  4.210000000   296.07
44.510000000  4.230000000   337.72
44.510000000  4.250000000   302.68
44.510000000  4.270000000   252.22
44.510000000  4.290000000   208.59
44.510000000  4.310000000   171.76
44.510000000  4.330000000   232.39
44.510000000  4.350000000   245.29
44.510000000  4.370000000   192.52
44.510000000  4.390000000   163.84
44.510000000  4.410000000   205.10
44.510000000  4.430000000   269.96
44.510000000  4.450000000   338.85
44.510000000  4.470000000   288.68
44.510000000  4.490000000   277.71
44.510000000  4.510000000   327.84
44.510000000  4.530000000   374.20
44.510000000  4.550000000   414.05
44.510000000  4.570000000   226.21
44.510000000  4.590000000   229.06
44.510000000  4.610000000   193.19
44.510000000  4.630000000   173.05
44.510000000  4.650000000   189.71
44.510000000  4.670000000   200.22
44.510000000  4.690000000    78.86
44.510000000  4.710000000    66.45
44.510000000  4.730000000    76.66
44.510000000  4.750000000    88.73
44.510000000  4.770000000   142.92
44.510000000  4.790000000   162.09
44.510000000  4.810000000   203.02
44.510000000  4.830000000   230.96
44.510000000  4.850000000   243.64
44.510000000  4.870000000   287.18
44.510000000  4.890000000   318.60
44.510000000  4.910000000   381.07
44.510000000  4.930000000   388.34
44.510000000  4.950000000   400.06
44.510000000  4.970000000   428.55
44.510000000  4.990000000   522.34
44.490000000  4.010000000   942.92
44.490000000  4.030000000   780.88
44.490000000  4.050000000   541.22
44.490000000  4.070000000   733.45
44.490000000  4.090000000   651.40
44.490000000  4.110000000   611.83
44.490000000  4.130000000   649.57
44.490000000  4.150000000   517.11
44.490000000  4.170000000   398.77
44.490000000  4.190000000   348.68
44.490000000  4.210000000   279.16
44.490000000  4.230000000   207.94
44.490000000  4.250000000   203.71
44.490000000  4.270000000   191.67
44.490000000  4.290000000   227.11
44.490000000  4.310000000   224.34
44.490000000  4.330000000   195.13
44.490000000  4.350000000   210.62
44.490000000  4.370000000   147.93
44.490000000  4.390000000   204.36
44.490000000  4.410000000   295.03
44.490000000  4.430000000   280.88
44.490000000  4.450000000   313.12
44.490000000  4.470000000   263.96
44.490000000  4.490000000   266.25
44.490000000  4.510000000   328.05
44.490000000  4.530000000   388.75
44.490000000  4.550000000   340.58
44.490000000  4.570000000   227.94
44.490000000  4.590000000   228.87
44.490000000  4.610000000   205.04
44.490000000  4.630000000   199.63
44.490000000  4.650000000   154.43
44.490000000  4.670000000   113.03
44.490000000  4.690000000    70.36
44.490000000  4.710000000    79.40
44.490000000  4.730000000   116.39
44.490000000  4.750000000   114.63
44.490000000  4.770000000   135.64
44.490000000  4.790000000   169.09
44.490000000  4.810000000   255.36
44.490000000  4.830000000   373.23
44.490000000  4.850000000   370.19
44.490000000  4.870000000   375.79
44.490000000  4.890000000   388.72
44.490000000  4.910000000   410.56
44.490000000  4.930000000   445.12
44.490000000  4.950000000   475.92
44.490000000  4.970000000   529.46
44.490000000  4.990000000   612.60
44.470000000  4.010000000   720.49
44.470000000  4.030000000   707.08
44.470000000  4.050000000   466.28
44.470000000  4.070000000   620.83
44.470000000  4.090000000   617.88
44.470000000  4.110000000   436.84
44.470000000  4.130000000   435.78
44.470000000  4.150000000   400.72
44.470000000  4.170000000   367.93
44.470000000  4.190000000   322.91
44.470000000  4.210000000   259.44
44.470000000  4.230000000   225.58
44.470000000  4.250000000   221.49
44.470000000  4.270000000   202.16
44.470000000  4.290000000   250.14
44.470000000  4.310000000   225.18
44.470000000  4.330000000   182.87
44.470000000  4.350000000   152.26
44.470000000  4.370000000   174.34
44.470000000  4.390000000   262.71
44.470000000  4.410000000   240.64
44.470000000  4.430000000   249.24
44.470000000  4.450000000   238.02
44.470000000  4.470000000   261.98
44.470000000  4.490000000   320.36
44.470000000  4.510000000   401.52
44.470000000  4.530000000   398.15
44.470000000  4.550000000   298.45
44.470000000  4.570000000   294.48
44.470000000  4.590000000   249.42
44.470000000  4.610000000   290.15
44.470000000  4.630000000   334.94
44.470000000  4.650000000   276.95
44.470000000  4.670000000   265.47
44.470000000  4.690000000    99.75
44.470000000  4.710000000   153.05
44.470000000  4.730000000   216.38
44.470000000  4.750000000   171.50
44.470000000  4.770000000   200.86
44.470000000  4.790000000   271.88
44.470000000  4.810000000   302.08
44.470000000  4.830000000   294.82
44.470000000  4.850000000   305.13
44.470000000  4.870000000   353.69
44.470000000  4.890000000   385.42
44.470000000  4.910000000   387.62
44.470000000  4.930000000   362.59
44.470000000  4.950000000   344.62
44.470000000  4.970000000   381.12
44.470000000  4.990000000   465.43
44.450000000  4.010000000   449.59
44.450000000  4.030000000   428.89
44.450000000  4.050000000   369.91
44.450000000  4.070000000   416.99
44.450000000  4.090000000   423.28
44.450000000  4.110000000   347.21
44.450000000  4.130000000   285.64
44.450000000  4.150000000   360.23
44.450000000  4.170000000   302.16
44.450000000  4.190000000   257.20
44.450000000  4.210000000   243.47
44.450000000  4.230000000   252.61
44.450000000  4.250000000   230.94
44.450000000  4.270000000   210.32
44.450000000  4.290000000   189.15
44.450000000  4.310000000   177.16
44.450000000  4.330000000   128.39
44.450000000  4.350000000   144.47
44.450000000  4.370000000   203.39
44.450000000  4.390000000   224.49
44.450000000  4.410000000   202.88
44.450000000  4.430000000   216.97
44.450000000  4.450000000   231.21
44.450000000  4.470000000   340.66
44.450000000  4.490000000   340.57
44.450000000  4.510000000   425.68
44.450000000  4.530000000   386.62
44.450000000  4.550000000   298.27
44.450000000  4.570000000   314.03
44.450000000  4.590000000   316.73
44.450000000  4.610000000   292.36
44.450000000  4.630000000   230.96
44.450000000  4.650000000   214.14
44.450000000  4.670000000   210.57
44.450000000  4.690000000    76.45
44.450000000  4.710000000   105.55
44.450000000  4.730000000   122.30
44.450000000  4.750000000   125.82
44.450000000  4.770000000   250.54
44.450000000  4.790000000   300.68
44.450000000  4.810000000   212.89
44.450000000  4.830000000   230.79
44.450000000  4.850000000   271.81
44.450000000  4.870000000   270.93
44.450000000  4.890000000   264.68
44.450000000  4.910000000   263.44
44.450000000  4.930000000   254.52
44.450000000  4.950000000   261.17
44.450000000  4.970000000   288.77
44.450000000  4.990000000   326.98
44.430000000  4.010000000   720.28
44.430000000  4.030000000   684.77
44.430000000  4.050000000   519.47
44.430000000  4.070000000   351.02
44.430000000  4.090000000   266.86
44.430000000  4.110000000   272.11
44.430000000  4.130000000   229.65
44.430000000  4.150000000   240.29
44.430000000  4.170000000   240.31
44.430000000  4.190000000   210.89
44.430000000  4.210000000   237.44
44.430000000  4.230000000   217.56
44.430000000  4.250000000   193.29
44.430000000  4.270000000   169.66
44.430000000  4.290000000   159.89
44.430000000  4.310000000   120.16
44.430000000  4.330000000   113.45
44.430000000  4.350000000   129.42
44.430000000  4.370000000   166.09
44.430000000  4.390000000   239.88
44.430000000  4.410000000   157.22
44.430000000  4.430000000   140.53
44.430000000  4.450000000   259.28
44.430000000  4.470000000   405.78
44.430000000  4.490000000   554.73
44.430000000  4.510000000   517.83
44.430000000  4.530000000   378.87
44.430000000  4.550000000   347.27
44.430000000  4.570000000   337.27
44.430000000  4.590000000   287.22
44.430000000  4.610000000   184.79
44.430000000  4.630000000   116.86
44.430000000  4.650000000    76.31
44.430000000  4.670000000    57.23
44.430000000  4.690000000    58.27
44.430000000  4.710000000    61.27
44.430000000  4.730000000    86.05
44.430000000  4.750000000   122.67
44.430000000  4.770000000   141.31
44.430000000  4.790000000   151.44
44.430000000  4.810000000   141.64
44.430000000  4.830000000   192.29
44.430000000  4.850000000   187.35
44.430000000  4.870000000   184.78
44.430000000  4.890000000   191.25
44.430000000  4.910000000   205.28
44.430000000  4.930000000   235.02
44.430000000  4.950000000   231.09
44.430000000  4.970000000   246.16
44.430000000  4.990000000   268.21
44.410000000  4.010000000   737.71
44.410000000  4.030000000   841.62
44.410000000  4.050000000   763.96
44.410000000  4.070000000   616.54
44.410000000  4.090000000   329.81
44.410000000  4.110000000   244.41
44.410000000  4.130000000   191.48
44.410000000  4.150000000   214.18
44.410000000  4.170000000   181.49
44.410000000  4.190000000   209.31
44.410000000  4.210000000   194.05
44.410000000  4.230000000   167.69
44.410000000  4.250000000   142.05
44.410000000  4.270000000   124.30
44.410000000  4.290000000   118.53
44.410000000  4.310000000   199.74
44.410000000  4.330000000   247.66
44.410000000  4.350000000   158.57
44.410000000  4.370000000   105.66
44.410000000  4.390000000   113.79
44.410000000  4.410000000   116.78
44.410000000  4.430000000   232.75
44.410000000  4.450000000   381.84
44.410000000  4.470000000   471.44
44.410000000  4.490000000   542.86
44.410000000  4.510000000   448.06
44.410000000  4.530000000   358.39
44.410000000  4.550000000   335.15
44.410000000  4.570000000   342.42
44.410000000  4.590000000   350.41
44.410000000  4.610000000   300.35
44.410000000  4.630000000   158.75
44.410000000  4.650000000    84.57
44.410000000  4.670000000    55.46
44.410000000  4.690000000    56.67
44.410000000  4.710000000    59.38
44.410000000  4.730000000    64.07
44.410000000  4.750000000    98.69
44.410000000  4.770000000   130.97
44.410000000  4.790000000   141.46
44.410000000  4.810000000   136.64
44.410000000  4.830000000   156.01
44.410000000  4.850000000   192.20
44.410000000  4.870000000   191.78
44.410000000  4.890000000   188.92
44.410000000  4.910000000   190.92
44.410000000  4.930000000   199.11
44.410000000  4.950000000   209.71
44.410000000  4.970000000   237.84
44.410000000  4.990000000   245.11
44.390000000  4.010000000   825.73
44.390000000  4.030000000   835.62
44.390000000  4.050000000   710.45
44.390000000  4.070000000   581.27
44.390000000  4.090000000   590.69
44.390000000  4.110000000   377.77
44.390000000  4.130000000   293.35
44.390000000  4.150000000   248.39
44.390000000  4.170000000   218.35
44.390000000  4.190000000   187.97
44.390000000  4.210000000   138.73
44.390000000  4.230000000   121.12
44.390000000  4.250000000   119.28
44.390000000  4.270000000   136.74
44.390000000  4.290000000   207.90
44.390000000  4.310000000   366.96
44.390000000  4.330000000   346.25
44.390000000  4.350000000   193.24
44.390000000  4.370000000   173.59
44.390000000  4.390000000   138.47
44.390000000  4.410000000   147.42
44.390000000  4.430000000   309.18
44.390000000  4.450000000   309.80
44.390000000  4.470000000   363.57
44.390000000  4.490000000   374.59
44.390000000  4.510000000   382.49
44.390000000  4.530000000   365.88
44.390000000  4.550000000   375.86
44.390000000  4.570000000   377.38
44.390000000  4.590000000   378.88
44.390000000  4.610000000   272.97
44.390000000  4.630000000   136.23
44.390000000  4.650000000    57.52
44.390000000  4.670000000    53.29
44.390000000  4.690000000    54.50
44.390000000  4.710000000    56.51
44.390000000  4.730000000    58.97
44.390000000  4.750000000    98.35
44.390000000  4.770000000   140.28
44.390000000  4.790000000   136.25
44.390000000  4.810000000   248.74
44.390000000  4.830000000   297.80
44.390000000  4.850000000   248.97
44.390000000  4.870000000   183.88
44.390000000  4.890000000   165.84
44.390000000  4.910000000   165.96
44.390000000  4.930000000   177.00
44.390000000  4.950000000   201.21
44.390000000  4.970000000   213.91
44.390000000  4.990000000   233.75
44.370000000  4.010000000   631.29
44.370000000  4.030000000   731.57
44.370000000  4.050000000   658.68
44.370000000  4.070000000   578.63
44.370000000  4.090000000   387.11
44.370000000  4.110000000   343.16
44.370000000  4.130000000   353.63
44.370000000  4.150000000   295.27
44.370000000  4.170000000   171.01
44.370000000  4.190000000   139.77
44.370000000  4.210000000   131.06
44.370000000  4.230000000   128.06
44.370000000  4.250000000   146.36
44.370000000  4.270000000   202.32
44.370000000  4.290000000   318.82
44.370000000  4.310000000   338.39
44.370000000  4.330000000   266.31
44.370000000  4.350000000   221.73
44.370000000  4.370000000   201.10
44.370000000  4.390000000   234.79
44.370000000  4.410000000   266.87
44.370000000  4.430000000   187.56
44.370000000  4.450000000   254.98
44.370000000  4.470000000   316.44
44.370000000  4.490000000   322.00
44.370000000  4.510000000   358.44
44.370000000  4.530000000   338.64
44.370000000  4.550000000   324.98
44.370000000  4.570000000   328.16
44.370000000  4.590000000   296.34
44.370000000  4.610000000   212.83
44.370000000  4.630000000   131.39
44.370000000  4.650000000    56.52
44.370000000  4.670000000    50.56
44.370000000  4.690000000    52.33
44.370000000  4.710000000    54.33
44.370000000  4.730000000    57.43
44.370000000  4.750000000    80.40
44.370000000  4.770000000    91.91
44.370000000  4.790000000   115.29
44.370000000  4.810000000   211.27
44.370000000  4.830000000   254.14
44.370000000  4.850000000   182.22
44.370000000  4.870000000   149.44
44.370000000  4.890000000   146.59
44.370000000  4.910000000   157.15
44.370000000  4.930000000   171.06
44.370000000  4.950000000   185.20
44.370000000  4.970000000   205.68
44.370000000  4.990000000   255.79
44.350000000  4.010000000   441.96
44.350000000  4.030000000   599.89
44.350000000  4.050000000   612.81
44.350000000  4.070000000   421.07
44.350000000  4.090000000   280.73
44.350000000  4.110000000   300.93
44.350000000  4.130000000   324.55
44.350000000  4.150000000   323.16
44.350000000  4.170000000   251.13
44.350000000  4.190000000   218.70
44.350000000  4.210000000   189.11
44.350000000  4.230000000   181.57
44.350000000  4.250000000   217.72
44.350000000  4.270000000   309.20
44.350000000  4.290000000   286.39
44.350000000  4.310000000   236.08
44.350000000  4.330000000   219.93
44.350000000  4.350000000   238.47
44.350000000  4.370000000   224.51
44.350000000  4.390000000   233.79
44.350000000  4.410000000   281.28
44.350000000  4.430000000   266.74
44.350000000  4.450000000   222.87
44.350000000  4.470000000   223.58
44.350000000  4.490000000   287.43
44.350000000  4.510000000   274.31
44.350000000  4.530000000   283.78
44.350000000  4.550000000   251.15
44.350000000  4.570000000   221.55
44.350000000  4.590000000   201.29
44.350000000  4.610000000   155.25
44.350000000  4.630000000   102.78
44.350000000  4.650000000    49.68
44.350000000  4.670000000    48.83
44.350000000  4.690000000    50.23
44.350000000  4.710000000    51.53
44.350000000  4.730000000    55.08
44.350000000  4.750000000    75.98
44.350000000  4.770000000    96.05
44.350000000  4.790000000   121.93
44.350000000  4.810000000   157.71
44.350000000  4.830000000   137.21
44.350000000  4.850000000   133.24
44.350000000  4.870000000   125.60
44.350000000  4.890000000   136.05
44.350000000  4.910000000   148.83
44.350000000  4.930000000   164.82
44.350000000  4.950000000   184.56
44.350000000  4.970000000   228.44
44.350000000  4.990000000   315.48
44.330000000  4.010000000   427.86
44.330000000  4.030000000   357.37
44.330000000  4.050000000   399.13
44.330000000  4.070000000   412.23
44.330000000  4.090000000   278.14
44.330000000  4.110000000   257.47
44.330000000  4.130000000   250.39
44.330000000  4.150000000   286.11
44.330000000  4.170000000   238.57
44.330000000  4.190000000   215.16
44.330000000  4.210000000   213.05
44.330000000  4.230000000   235.41
44.330000000  4.250000000   303.70
44.330000000  4.270000000   265.78
44.330000000  4.290000000   212.49
44.330000000  4.310000000   182.87
44.330000000  4.330000000   178.31
44.330000000  4.350000000   207.76
44.330000000  4.370000000   239.17
44.330000000  4.390000000   312.60
44.330000000  4.410000000   344.38
44.330000000  4.430000000   359.55
44.330000000  4.450000000   370.98
44.330000000  4.470000000   344.68
44.330000000  4.490000000   296.62
44.330000000  4.510000000   232.80
44.330000000  4.530000000   216.93
44.330000000  4.550000000   173.52
44.330000000  4.570000000   188.75
44.330000000  4.590000000   160.90
44.330000000  4.610000000   145.26
44.330000000  4.630000000   122.78
44.330000000  4.650000000    52.74
44.330000000  4.670000000    47.44
44.330000000  4.690000000    48.57
44.330000000  4.710000000    48.95
44.330000000  4.730000000    54.62
44.330000000  4.750000000    96.72
44.330000000  4.770000000   239.85
44.330000000  4.790000000   164.57
44.330000000  4.810000000    99.30
44.330000000  4.830000000   116.02
44.330000000  4.850000000   117.70
44.330000000  4.870000000   116.42
44.330000000  4.890000000   127.83
44.330000000  4.910000000   137.96
44.330000000  4.930000000   157.27
44.330000000  4.950000000   206.85
44.330000000  4.970000000   289.94
44.330000000  4.990000000   311.96
44.310000000  4.010000000   409.40
44.310000000  4.030000000   384.91
44.310000000  4.050000000   290.97
44.310000000  4.070000000   320.37
44.310000000  4.090000000   276.31
44.310000000  4.110000000   260.33
44.310000000  4.130000000   233.27
44.310000000  4.150000000   319.11
44.310000000  4.170000000   250.32
44.310000000  4.190000000   211.85
44.310000000  4.210000000   186.23
44.310000000  4.230000000   175.75
44.310000000  4.250000000   221.33
44.310000000  4.270000000   220.90
44.310000000  4.290000000   170.39
44.310000000  4.310000000   151.64
44.310000000  4.330000000   139.13
44.310000000  4.350000000   178.63
44.310000000  4.370000000   261.39
44.310000000  4.390000000   269.83
44.310000000  4.410000000   275.34
44.310000000  4.430000000   290.69
44.310000000  4.450000000   297.39
44.310000000  4.470000000   308.82
44.310000000  4.490000000   282.97
44.310000000  4.510000000   266.11
44.310000000  4.530000000   222.52
44.310000000  4.550000000   133.12
44.310000000  4.570000000   127.92
44.310000000  4.590000000    95.95
44.310000000  4.610000000    94.75
44.310000000  4.630000000    67.42
44.310000000  4.650000000    48.45
44.310000000  4.670000000    44.70
44.310000000  4.690000000    46.40
44.310000000  4.710000000    45.95
44.310000000  4.730000000    48.95
44.310000000  4.750000000    90.31
44.310000000  4.770000000   138.45
44.310000000  4.790000000   101.09
44.310000000  4.810000000    72.80
44.310000000  4.830000000   106.98
44.310000000  4.850000000   102.38
44.310000000  4.870000000   106.86
44.310000000  4.890000000   114.42
44.310000000  4.910000000   122.67
44.310000000  4.930000000   136.91
44.310000000  4.950000000   181.09
44.310000000  4.970000000   236.82
44.310000000  4.990000000   286.25
44.290000000  4.010000000   385.83
44.290000000  4.030000000   452.39
44.290000000  4.050000000   412.27
44.290000000  4.070000000   292.08
44.290000000  4.090000000   268.81
44.290000000  4.110000000   243.10
44.290000000  4.130000000   257.58
44.290000000  4.150000000   364.00
44.290000000  4.170000000   266.04
44.290000000  4.190000000   239.10
44.290000000  4.210000000   299.72
44.290000000  4.230000000   260.75
44.290000000  4.250000000   171.81
44.290000000  4.270000000   150.70
44.290000000  4.290000000   147.03
44.290000000  4.310000000   135.12
44.290000000  4.330000000   135.18
44.290000000  4.350000000   197.33
44.290000000  4.370000000   242.78
44.290000000  4.390000000   215.96
44.290000000  4.410000000   209.24
44.290000000  4.430000000   214.04
44.290000000  4.450000000   236.47
44.290000000  4.470000000   257.26
44.290000000  4.490000000   226.28
44.290000000  4.510000000   175.72
44.290000000  4.530000000   119.56
44.290000000  4.550000000   127.15
44.290000000  4.570000000    72.74
44.290000000  4.590000000    49.75
44.290000000  4.610000000    48.06
44.290000000  4.630000000    46.93
44.290000000  4.650000000    43.90
44.290000000  4.670000000    42.75
44.290000000  4.690000000    42.89
44.290000000  4.710000000    44.73
44.290000000  4.730000000    49.99
44.290000000  4.750000000    58.87
44.290000000  4.770000000    76.54
44.290000000  4.790000000    91.42
44.290000000  4.810000000    80.79
44.290000000  4.830000000    89.85
44.290000000  4.850000000    97.78
44.290000000  4.870000000   108.39
44.290000000  4.890000000   113.08
44.290000000  4.910000000   115.31
44.290000000  4.930000000   138.82
44.290000000  4.950000000   167.59
44.290000000  4.970000000   178.33
44.290000000  4.990000000   180.24
44.270000000  4.010000000   565.92
44.270000000  4.030000000   497.10
44.270000000  4.050000000   452.20
44.270000000  4.070000000   428.02
44.270000000  4.090000000   386.76
44.270000000  4.110000000   323.72
44.270000000  4.130000000   208.13
44.270000000  4.150000000   199.04
44.270000000  4.170000000   204.94
44.270000000  4.190000000   188.60
44.270000000  4.210000000   207.28
44.270000000  4.230000000   200.92
44.270000000  4.250000000   164.11
44.270000000  4.270000000   130.33
44.270000000  4.290000000   132.51
44.270000000  4.310000000   160.76
44.270000000  4.330000000   166.79
44.270000000  4.350000000   198.07
44.270000000  4.370000000   188.69
44.270000000  4.390000000   177.39
44.270000000  4.410000000   149.35
44.270000000  4.430000000   145.01
44.270000000  4.450000000   209.34
44.270000000  4.470000000   257.01
44.270000000  4.490000000   266.13
44.270000000  4.510000000   210.21
44.270000000  4.530000000   173.94
44.270000000  4.550000000   145.45
44.270000000  4.570000000   116.77
44.270000000  4.590000000    71.73
44.270000000  4.610000000    66.00
44.270000000  4.630000000    74.64
44.270000000  4.650000000    45.39
44.270000000  4.670000000    41.20
44.270000000  4.690000000    41.27
44.270000000  4.710000000    44.86
44.270000000  4.730000000    47.36
44.270000000  4.750000000    85.19
44.270000000  4.770000000   121.07
44.270000000  4.790000000   103.35
44.270000000  4.810000000    90.30
44.270000000  4.830000000    91.34
44.270000000  4.850000000    98.17
44.270000000  4.870000000   108.67
44.270000000  4.890000000   118.46
44.270000000  4.910000000   127.49
44.270000000  4.930000000   135.85
44.270000000  4.950000000   150.92
44.270000000  4.970000000   206.65
44.270000000  4.990000000   285.13
44.250000000  4.010000000   461.74
44.250000000  4.030000000   495.68
44.250000000  4.050000000   404.54
44.250000000  4.070000000   398.44
44.250000000  4.090000000   345.52
44.250000000  4.110000000   329.32
44.250000000  4.130000000   324.04
44.250000000  4.150000000   345.55
44.250000000  4.170000000   309.09
44.250000000  4.190000000   200.98
44.250000000  4.210000000   136.29
44.250000000  4.230000000   152.19
44.250000000  4.250000000   152.29
44.250000000  4.270000000   128.14
44.250000000  4.290000000   124.53
44.250000000  4.310000000   159.29
44.250000000  4.330000000   200.11
44.250000000  4.350000000   266.27
44.250000000  4.370000000   269.85
44.250000000  4.390000000   253.47
44.250000000  4.410000000   237.26
44.250000000  4.430000000   159.33
44.250000000  4.450000000   147.89
44.250000000  4.470000000   239.87
44.250000000  4.490000000   300.24
44.250000000  4.510000000   251.92
44.250000000  4.530000000   266.66
44.250000000  4.550000000   244.23
44.250000000  4.570000000   171.56
44.250000000  4.590000000   118.15
44.250000000  4.610000000   114.58
44.250000000  4.630000000    82.22
44.250000000  4.650000000    47.19
44.250000000  4.670000000    40.40
44.250000000  4.690000000    39.04
44.250000000  4.710000000    44.03
44.250000000  4.730000000    60.23
44.250000000  4.750000000   139.63
44.250000000  4.770000000   155.60
44.250000000  4.790000000   156.56
44.250000000  4.810000000   152.35
44.250000000  4.830000000   127.00
44.250000000  4.850000000   102.79
44.250000000  4.870000000   103.62
44.250000000  4.890000000   111.34
