45.8300 2.6300   51.0823
45.8300 2.6500   51.1003
45.8300 2.6700   51.1241
45.8300 2.6900   51.1450
45.8300 2.7100   51.1644
45.8300 2.7300   51.1874
45.8300 2.7500   51.1996
45.8300 2.7700   51.2213
45.8300 2.7900   51.2357
45.8300 2.8100   51.2522
45.8300 2.8300   51.2495
45.8300 2.8500   51.2540
45.8300 2.8700   51.2701
45.8300 2.8900   51.2821
45.8300 2.9100   51.2922
45.8300 2.9300   51.3010
45.8300 2.9500   51.3099
45.8300 2.9700   51.2737
45.8300 2.9900   51.2208
45.8300 3.0100   51.1651
45.8300 3.0300   51.0699
45.8300 3.0500   50.9515
45.8300 3.0700   50.8515
45.8300 3.0900   50.7873
45.8300 3.1100   50.7304
45.8300 3.1300   50.6868
45.8300 3.1500   50.6533
45.8300 3.1700   50.6284
45.8300 3.1900   50.6102
45.8300 3.2100   50.5981
45.8300 3.2300   50.5912
45.8300 3.2500   50.5925
45.8300 3.2700   50.5944
45.8300 3.2900   50.6038
45.8300 3.3100   50.6204
45.8300 3.3300   50.6354
45.8300 3.3500   50.6522
45.8300 3.3700   50.6702
45.8300 3.3900   50.6936
45.8300 3.4100   50.7176
45.8300 3.4300   50.7413
45.8300 3.4500   50.7678
45.8300 3.4700   50.7992
45.8300 3.4900   50.8309
45.8300 3.5100   50.8667
45.8300 3.5300   50.9244
45.8300 3.5500   50.9990
45.8300 3.5700   51.0973
45.8300 3.5900   51.1758
45.8300 3.6100   51.2230
45.8300 3.6300   51.2700
45.8300 3.6500   51.3305
45.8300 3.6700   51.3519
45.8300 3.6900   51.3917
45.8300 3.7100   51.4217
45.8300 3.7300   51.4516
45.8300 3.7500   51.4334
45.8300 3.7700   51.4318
45.8300 3.7900   51.4213
45.8300 3.8100   51.4076
45.8300 3.8300   51.3793
45.8300 3.8500   51.3464
45.8300 3.8700   51.3261
45.8300 3.8900   51.3010
45.8300 3.9100   51.2626
45.8300 3.9300   51.2312
45.8300 3.9500   51.1798
45.8300 3.9700   51.1245
45.8300 3.9900   51.0801
45.8300 4.0100   51.0388
45.8300 4.0300   50.9895
45.8300 4.0500   50.9527
45.8300 4.0700   50.9208
45.8300 4.0900   50.8977
45.8300 4.1100   50.8812
45.8300 4.1300   50.8766
45.8300 4.1500   50.8713
45.8300 4.1700   50.8713
45.8300 4.1900   50.8776
45.8300 4.2100   50.8924
45.8300 4.2300   50.9125
45.8300 4.2500   50.9350
45.8300 4.2700   50.9574
45.8300 4.2900   50.9806
45.8300 4.3100   50.9933
45.8300 4.3300   51.0142
45.8300 4.3500   51.0255
45.8300 4.3700   51.0365
45.8300 4.3900   51.0507
45.8300 4.4100   51.0193
45.8300 4.4300   50.9942
45.8300 4.4500   50.9630
45.8300 4.4700   50.9651
45.8300 4.4900   50.9479
45.8500 1.5100   49.6509
45.8500 1.5300   49.6836
45.8500 1.5500   49.7193
45.8500 1.5700   49.7506
45.8500 1.5900   49.7920
45.8500 1.6100   49.8307
45.8500 1.6300   49.8728
45.8500 1.6500   49.8941
45.8500 1.6700   49.9358
45.8500 1.6900   49.9881
45.8500 1.7100   50.0448
45.8500 1.7300   50.0862
45.8500 1.7500   50.1287
45.8500 1.7700   50.1592
45.8500 1.7900   50.2131
45.8500 1.8100   50.2591
45.8500 1.8300   50.3112
45.8500 1.8500   50.3596
45.8500 1.8700   50.4145
45.8500 1.8900   50.4549
45.8500 1.9100   50.4781
45.8500 1.9300   50.5069
45.8500 1.9500   50.5191
45.8500 1.9700   50.5421
45.8500 1.9900   50.5681
45.8500 2.0100   50.5844
45.8500 2.0300   50.6081
45.8500 2.0500   50.6242
45.8500 2.0700   50.6447
45.8500 2.0900   50.6768
45.8500 2.1100   50.7048
45.8500 2.1300   50.7206
45.8500 2.1500   50.7225
45.8500 2.1700   50.7273
45.8500 2.1900   50.7487
45.8500 2.2100   50.7700
45.8500 2.2300   50.7862
45.8500 2.2500   50.7981
45.8500 2.2700   50.7932
45.8500 2.2900   50.8031
45.8500 2.3100   50.8169
45.8500 2.3300   50.8380
45.8500 2.3500   50.8575
45.8500 2.3700   50.8812
45.8500 2.3900   50.8931
45.8500 2.4100   50.9076
45.8500 2.4300   50.9180
45.8500 2.4500   50.9278
45.8500 2.4700   50.9314
45.8500 2.4900   50.9353
45.8500 2.5100   50.9424
45.8500 2.5300   50.9512
45.8500 2.5500   50.9622
45.8500 2.5700   50.9743
45.8500 2.5900   50.9923
45.8500 2.6100   51.0085
45.8500 2.6300   51.0185
45.8500 2.6500   51.0229
45.8500 2.6700   51.0353
45.8500 2.6900   51.0646
45.8500 2.7100   51.0838
45.8500 2.7300   51.1003
45.8500 2.7500   51.1151
45.8500 2.7700   51.1316
45.8500 2.7900   51.1450
45.8500 2.8100   51.1554
45.8500 2.8300   51.1598
45.8500 2.8500   51.1636
45.8500 2.8700   51.1809
45.8500 2.8900   51.1922
45.8500 2.9100   51.2064
45.8500 2.9300   51.2097
45.8500 2.9500   51.2150
45.8500 2.9700   51.1856
45.8500 2.9900   51.1220
45.8500 3.0100   51.0551
45.8500 3.0300   50.9709
45.8500 3.0500   50.8595
45.8500 3.0700   50.7780
45.8500 3.0900   50.7059
45.8500 3.1100   50.6455
45.8500 3.1300   50.5990
45.8500 3.1500   50.5684
45.8500 3.1700   50.5469
45.8500 3.1900   50.5298
45.8500 3.2100   50.5179
45.8500 3.2300   50.5125
45.8500 3.2500   50.5120
45.8500 3.2700   50.5170
45.8500 3.2900   50.5220
45.8500 3.3100   50.5368
45.8500 3.3300   50.5539
45.8500 3.3500   50.5708
45.8500 3.3700   50.5871
45.8500 3.3900   50.6078
45.8500 3.4100   50.6297
45.8500 3.4300   50.6508
45.8500 3.4500   50.6744
45.8500 3.4700   50.7065
45.8500 3.4900   50.7379
45.8500 3.5100   50.7844
45.8500 3.5300   50.8452
45.8500 3.5500   50.9342
45.8500 3.5700   51.0448
45.8500 3.5900   51.1141
45.8500 3.6100   51.1598
45.8500 3.6300   51.1962
45.8500 3.6500   51.2313
45.8500 3.6700   51.2600
45.8500 3.6900   51.3043
45.8500 3.7100   51.3352
45.8500 3.7300   51.3483
45.8500 3.7500   51.3608
45.8500 3.7700   51.3600
45.8500 3.7900   51.3382
45.8500 3.8100   51.3201
45.8500 3.8300   51.3051
45.8500 3.8500   51.2944
45.8500 3.8700   51.2847
45.8500 3.8900   51.2386
45.8500 3.9100   51.1883
45.8500 3.9300   51.1436
45.8500 3.9500   51.1004
45.8500 3.9700   51.0637
45.8500 3.9900   51.0260
45.8500 4.0100   50.9863
45.8500 4.0300   50.9429
45.8500 4.0500   50.9147
45.8500 4.0700   50.8884
45.8500 4.0900   50.8679
45.8500 4.1100   50.8607
45.8500 4.1300   50.8557
45.8500 4.1500   50.8565
45.8500 4.1700   50.8614
45.8500 4.1900   50.8692
45.8500 4.2100   50.8801
45.8500 4.2300   50.8929
45.8500 4.2500   50.9171
45.8500 4.2700   50.9422
45.8500 4.2900   50.9657
45.8500 4.3100   50.9843
45.8500 4.3300   51.0041
45.8500 4.3500   51.0166
45.8500 4.3700   51.0344
45.8500 4.3900   51.0266
45.8500 4.4100   51.0062
45.8500 4.4300   50.9687
45.8500 4.4500   50.9281
45.8500 4.4700   50.8870
45.8500 4.4900   50.8695
45.8700 1.5100   49.6165
45.8700 1.5300   49.6577
45.8700 1.5500   49.6920
45.8700 1.5700   49.7264
45.8700 1.5900   49.7639
45.8700 1.6100   49.8020
45.8700 1.6300   49.8410
45.8700 1.6500   49.8661
45.8700 1.6700   49.9087
45.8700 1.6900   49.9621
45.8700 1.7100   50.0133
45.8700 1.7300   50.0569
45.8700 1.7500   50.1060
45.8700 1.7700   50.1548
45.8700 1.7900   50.1740
45.8700 1.8100   50.2198
45.8700 1.8300   50.2649
45.8700 1.8500   50.3326
45.8700 1.8700   50.3797
45.8700 1.8900   50.4078
45.8700 1.9100   50.4267
45.8700 1.9300   50.4441
45.8700 1.9500   50.4668
45.8700 1.9700   50.4886
45.8700 1.9900   50.4998
45.8700 2.0100   50.5205
45.8700 2.0300   50.5395
45.8700 2.0500   50.5584
45.8700 2.0700   50.5818
45.8700 2.0900   50.6134
45.8700 2.1100   50.6471
45.8700 2.1300   50.6618
45.8700 2.1500   50.6559
45.8700 2.1700   50.6638
45.8700 2.1900   50.6870
45.8700 2.2100   50.7125
45.8700 2.2300   50.7243
45.8700 2.2500   50.7228
45.8700 2.2700   50.7336
45.8700 2.2900   50.7516
45.8700 2.3100   50.7641
45.8700 2.3300   50.7797
45.8700 2.3500   50.7971
45.8700 2.3700   50.8087
45.8700 2.3900   50.8253
45.8700 2.4100   50.8441
45.8700 2.4300   50.8626
45.8700 2.4500   50.8698
45.8700 2.4700   50.8740
45.8700 2.4900   50.8751
45.8700 2.5100   50.8837
45.8700 2.5300   50.8926
45.8700 2.5500   50.9044
45.8700 2.5700   50.9173
45.8700 2.5900   50.9335
45.8700 2.6100   50.9524
45.8700 2.6300   50.9570
45.8700 2.6500   50.9554
45.8700 2.6700   50.9585
45.8700 2.6900   50.9777
45.8700 2.7100   50.9988
45.8700 2.7300   51.0148
45.8700 2.7500   51.0304
45.8700 2.7700   51.0452
45.8700 2.7900   51.0525
45.8700 2.8100   51.0560
45.8700 2.8300   51.0594
45.8700 2.8500   51.0773
45.8700 2.8700   51.0950
45.8700 2.8900   51.0978
45.8700 2.9100   51.1111
45.8700 2.9300   51.1085
45.8700 2.9500   51.0950
45.8700 2.9700   51.0574
45.8700 2.9900   51.0189
45.8700 3.0100   50.9482
45.8700 3.0300   50.8681
45.8700 3.0500   50.7570
45.8700 3.0700   50.6809
45.8700 3.0900   50.6168
45.8700 3.1100   50.5681
45.8700 3.1300   50.5196
45.8700 3.1500   50.4905
45.8700 3.1700   50.4691
45.8700 3.1900   50.4529
45.8700 3.2100   50.4410
45.8700 3.2300   50.4330
45.8700 3.2500   50.4307
45.8700 3.2700   50.4358
45.8700 3.2900   50.4431
45.8700 3.3100   50.4518
45.8700 3.3300   50.4625
45.8700 3.3500   50.4799
45.8700 3.3700   50.4985
45.8700 3.3900   50.5197
45.8700 3.4100   50.5447
45.8700 3.4300   50.5641
45.8700 3.4500   50.5886
45.8700 3.4700   50.6140
45.8700 3.4900   50.6523
45.8700 3.5100   50.7126
45.8700 3.5300   50.7892
45.8700 3.5500   50.8937
45.8700 3.5700   50.9660
45.8700 3.5900   51.0209
45.8700 3.6100   51.0700
45.8700 3.6300   51.1115
45.8700 3.6500   51.1459
45.8700 3.6700   51.1838
45.8700 3.6900   51.2193
45.8700 3.7100   51.2371
45.8700 3.7300   51.2652
45.8700 3.7500   51.2993
45.8700 3.7700   51.3007
45.8700 3.7900   51.2721
45.8700 3.8100   51.2551
45.8700 3.8300   51.2254
45.8700 3.8500   51.2246
45.8700 3.8700   51.1965
45.8700 3.8900   51.1466
45.8700 3.9100   51.1038
45.8700 3.9300   51.0786
45.8700 3.9500   51.0415
45.8700 3.9700   51.0093
45.8700 3.9900   50.9701
45.8700 4.0100   50.9364
45.8700 4.0300   50.9037
45.8700 4.0500   50.8783
45.8700 4.0700   50.8505
45.8700 4.0900   50.8315
45.8700 4.1100   50.8234
45.8700 4.1300   50.8234
45.8700 4.1500   50.8312
45.8700 4.1700   50.8350
45.8700 4.1900   50.8390
45.8700 4.2100   50.8469
45.8700 4.2300   50.8562
45.8700 4.2500   50.8773
45.8700 4.2700   50.9027
45.8700 4.2900   50.9243
45.8700 4.3100   50.9448
45.8700 4.3300   50.9646
45.8700 4.3500   50.9848
45.8700 4.3700   50.9765
45.8700 4.3900   50.9422
45.8700 4.4100   50.9350
45.8700 4.4300   50.9152
45.8700 4.4500   50.8788
45.8700 4.4700   50.8429
45.8700 4.4900   50.8015
45.8900 1.5100   49.5852
45.8900 1.5300   49.6231
45.8900 1.5500   49.6596
45.8900 1.5700   49.6935
45.8900 1.5900   49.7337
45.8900 1.6100   49.7738
45.8900 1.6300   49.8061
45.8900 1.6500   49.8460
45.8900 1.6700   49.8960
45.8900 1.6900   49.9299
45.8900 1.7100   49.9778
45.8900 1.7300   50.0236
45.8900 1.7500   50.0709
45.8900 1.7700   50.1219
45.8900 1.7900   50.1495
45.8900 1.8100   50.1903
45.8900 1.8300   50.2322
45.8900 1.8500   50.2868
45.8900 1.8700   50.3329
45.8900 1.8900   50.3554
45.8900 1.9100   50.3758
45.8900 1.9300   50.3890
45.8900 1.9500   50.4018
45.8900 1.9700   50.4207
45.8900 1.9900   50.4338
45.8900 2.0100   50.4566
45.8900 2.0300   50.4769
45.8900 2.0500   50.4999
45.8900 2.0700   50.5348
45.8900 2.0900   50.5536
45.8900 2.1100   50.5821
45.8900 2.1300   50.5895
45.8900 2.1500   50.5951
45.8900 2.1700   50.6005
45.8900 2.1900   50.6207
45.8900 2.2100   50.6423
45.8900 2.2300   50.6545
45.8900 2.2500   50.6568
45.8900 2.2700   50.6739
45.8900 2.2900   50.6892
45.8900 2.3100   50.7021
45.8900 2.3300   50.7141
45.8900 2.3500   50.7277
45.8900 2.3700   50.7474
45.8900 2.3900   50.7671
45.8900 2.4100   50.7866
45.8900 2.4300   50.8026
45.8900 2.4500   50.8084
45.8900 2.4700   50.8159
45.8900 2.4900   50.8222
45.8900 2.5100   50.8265
45.8900 2.5300   50.8312
45.8900 2.5500   50.8422
45.8900 2.5700   50.8544
45.8900 2.5900   50.8687
45.8900 2.6100   50.8863
45.8900 2.6300   50.8900
45.8900 2.6500   50.8931
45.8900 2.6700   50.8966
45.8900 2.6900   50.9032
45.8900 2.7100   50.9075
45.8900 2.7300   50.9304
45.8900 2.7500   50.9559
45.8900 2.7700   50.9597
45.8900 2.7900   50.9592
45.8900 2.8100   50.9665
45.8900 2.8300   50.9807
45.8900 2.8500   50.9961
45.8900 2.8700   51.0042
45.8900 2.8900   51.0170
45.8900 2.9100   51.0166
45.8900 2.9300   51.0177
45.8900 2.9500   50.9953
45.8900 2.9700   50.9618
45.8900 2.9900   50.9248
45.8900 3.0100   50.8722
45.8900 3.0300   50.7910
45.8900 3.0500   50.6802
45.8900 3.0700   50.5918
45.8900 3.0900   50.5281
45.8900 3.1100   50.4806
45.8900 3.1300   50.4413
45.8900 3.1500   50.4139
45.8900 3.1700   50.3944
45.8900 3.1900   50.3787
45.8900 3.2100   50.3674
45.8900 3.2300   50.3589
45.8900 3.2500   50.3535
45.8900 3.2700   50.3529
45.8900 3.2900   50.3579
45.8900 3.3100   50.3676
45.8900 3.3300   50.3746
45.8900 3.3500   50.3905
45.8900 3.3700   50.4122
45.8900 3.3900   50.4344
45.8900 3.4100   50.4581
45.8900 3.4300   50.4774
45.8900 3.4500   50.5006
45.8900 3.4700   50.5310
45.8900 3.4900   50.5788
45.8900 3.5100   50.6496
45.8900 3.5300   50.7267
45.8900 3.5500   50.8361
45.8900 3.5700   50.9157
45.8900 3.5900   50.9616
45.8900 3.6100   51.0097
45.8900 3.6300   51.0506
45.8900 3.6500   51.0879
45.8900 3.6700   51.1217
45.8900 3.6900   51.1481
45.8900 3.7100   51.1880
45.8900 3.7300   51.2322
45.8900 3.7500   51.2457
45.8900 3.7700   51.2149
45.8900 3.7900   51.1927
45.8900 3.8100   51.1687
45.8900 3.8300   51.1465
45.8900 3.8500   51.1230
45.8900 3.8700   51.0984
45.8900 3.8900   51.0693
45.8900 3.9100   51.0463
45.8900 3.9300   51.0182
45.8900 3.9500   50.9837
45.8900 3.9700   50.9462
45.8900 3.9900   50.9134
45.8900 4.0100   50.8861
45.8900 4.0300   50.8612
45.8900 4.0500   50.8337
45.8900 4.0700   50.8132
45.8900 4.0900   50.7960
45.8900 4.1100   50.7841
45.8900 4.1300   50.7911
45.8900 4.1500   50.7958
45.8900 4.1700   50.8026
45.8900 4.1900   50.8120
45.8900 4.2100   50.8119
45.8900 4.2300   50.8283
45.8900 4.2500   50.8387
45.8900 4.2700   50.8581
45.8900 4.2900   50.8852
45.8900 4.3100   50.9065
45.8900 4.3300   50.9374
45.8900 4.3500   50.9317
45.8900 4.3700   50.9016
45.8900 4.3900   50.8867
45.8900 4.4100   50.8647
45.8900 4.4300   50.8432
45.8900 4.4500   50.8252
45.8900 4.4700   50.8025
45.8900 4.4900   50.7759
45.9100 1.5100   49.5598
45.9100 1.5300   49.5939
45.9100 1.5500   49.6262
45.9100 1.5700   49.6613
45.9100 1.5900   49.6962
45.9100 1.6100   49.7205
45.9100 1.6300   49.7571
45.9100 1.6500   49.8026
45.9100 1.6700   49.8519
45.9100 1.6900   49.8970
45.9100 1.7100   49.9521
45.9100 1.7300   49.9936
45.9100 1.7500   50.0309
45.9100 1.7700   50.0786
45.9100 1.7900   50.1180
45.9100 1.8100   50.1610
45.9100 1.8300   50.2086
45.9100 1.8500   50.2488
45.9100 1.8700   50.2888
45.9100 1.8900   50.3036
45.9100 1.9100   50.3183
45.9100 1.9300   50.3241
45.9100 1.9500   50.3446
45.9100 1.9700   50.3632
45.9100 1.9900   50.3831
45.9100 2.0100   50.4021
45.9100 2.0300   50.4281
45.9100 2.0500   50.4562
45.9100 2.0700   50.4845
45.9100 2.0900   50.5007
45.9100 2.1100   50.5129
45.9100 2.1300   50.5217
45.9100 2.1500   50.5320
45.9100 2.1700   50.5392
45.9100 2.1900   50.5506
45.9100 2.2100   50.5723
45.9100 2.2300   50.5818
45.9100 2.2500   50.5915
45.9100 2.2700   50.6091
45.9100 2.2900   50.6207
45.9100 2.3100   50.6353
45.9100 2.3300   50.6497
45.9100 2.3500   50.6722
45.9100 2.3700   50.6896
45.9100 2.3900   50.6990
45.9100 2.4100   50.7154
45.9100 2.4300   50.7379
45.9100 2.4500   50.7528
45.9100 2.4700   50.7561
45.9100 2.4900   50.7603
45.9100 2.5100   50.7672
45.9100 2.5300   50.7783
45.9100 2.5500   50.7902
45.9100 2.5700   50.8033
45.9100 2.5900   50.8145
45.9100 2.6100   50.8310
45.9100 2.6300   50.8316
45.9100 2.6500   50.8316
45.9100 2.6700   50.8324
45.9100 2.6900   50.8288
45.9100 2.7100   50.8326
45.9100 2.7300   50.8491
45.9100 2.7500   50.8523
45.9100 2.7700   50.8713
45.9100 2.7900   50.8712
45.9100 2.8100   50.8876
45.9100 2.8300   50.9013
45.9100 2.8500   50.9109
45.9100 2.8700   50.9152
45.9100 2.8900   50.9205
45.9100 2.9100   50.9296
45.9100 2.9300   50.9299
45.9100 2.9500   50.9075
45.9100 2.9700   50.8755
45.9100 2.9900   50.8336
45.9100 3.0100   50.7850
45.9100 3.0300   50.7240
45.9100 3.0500   50.6332
45.9100 3.0700   50.5549
45.9100 3.0900   50.4751
45.9100 3.1100   50.4164
45.9100 3.1300   50.3759
45.9100 3.1500   50.3467
45.9100 3.1700   50.3242
45.9100 3.1900   50.3091
45.9100 3.2100   50.2977
45.9100 3.2300   50.2882
45.9100 3.2500   50.2809
45.9100 3.2700   50.2777
45.9100 3.2900   50.2777
45.9100 3.3100   50.2835
45.9100 3.3300   50.2922
45.9100 3.3500   50.3046
45.9100 3.3700   50.3258
45.9100 3.3900   50.3519
45.9100 3.4100   50.3769
45.9100 3.4300   50.3949
45.9100 3.4500   50.4188
45.9100 3.4700   50.4567
45.9100 3.4900   50.5106
45.9100 3.5100   50.5733
45.9100 3.5300   50.6625
45.9100 3.5500   50.7596
45.9100 3.5700   50.8489
45.9100 3.5900   50.9091
45.9100 3.6100   50.9627
45.9100 3.6300   50.9928
45.9100 3.6500   51.0380
45.9100 3.6700   51.0752
45.9100 3.6900   51.1227
45.9100 3.7100   51.1581
45.9100 3.7300   51.1972
45.9100 3.7500   51.1843
45.9100 3.7700   51.1440
45.9100 3.7900   51.1122
45.9100 3.8100   51.0957
45.9100 3.8300   51.0812
45.9100 3.8500   51.0666
45.9100 3.8700   51.0570
45.9100 3.8900   51.0292
45.9100 3.9100   50.9960
45.9100 3.9300   50.9618
45.9100 3.9500   50.9207
45.9100 3.9700   50.8847
45.9100 3.9900   50.8572
45.9100 4.0100   50.8327
45.9100 4.0300   50.8038
45.9100 4.0500   50.7678
45.9100 4.0700   50.7471
45.9100 4.0900   50.7404
45.9100 4.1100   50.7423
45.9100 4.1300   50.7445
45.9100 4.1500   50.7565
45.9100 4.1700   50.7677
45.9100 4.1900   50.7659
45.9100 4.2100   50.7705
45.9100 4.2300   50.7751
45.9100 4.2500   50.7860
45.9100 4.2700   50.8091
45.9100 4.2900   50.8340
45.9100 4.3100   50.8684
45.9100 4.3300   50.8979
45.9100 4.3500   50.8901
45.9100 4.3700   50.8856
45.9100 4.3900   50.8602
45.9100 4.4100   50.8455
45.9100 4.4300   50.8139
45.9100 4.4500   50.8184
45.9100 4.4700   50.7874
45.9100 4.4900   50.7438
45.9300 1.5100   49.5162
45.9300 1.5300   49.5537
45.9300 1.5500   49.5951
45.9300 1.5700   49.6338
45.9300 1.5900   49.6650
45.9300 1.6100   49.6891
45.9300 1.6300   49.7308
45.9300 1.6500   49.7755
45.9300 1.6700   49.8180
45.9300 1.6900   49.8652
45.9300 1.7100   49.9099
45.9300 1.7300   49.9475
45.9300 1.7500   49.9812
45.9300 1.7700   50.0294
45.9300 1.7900   50.0773
45.9300 1.8100   50.1238
45.9300 1.8300   50.1706
45.9300 1.8500   50.2066
45.9300 1.8700   50.2428
45.9300 1.8900   50.2406
45.9300 1.9100   50.2539
45.9300 1.9300   50.2697
45.9300 1.9500   50.2873
45.9300 1.9700   50.3095
45.9300 1.9900   50.3305
45.9300 2.0100   50.3583
45.9300 2.0300   50.3856
45.9300 2.0500   50.4178
45.9300 2.0700   50.4444
45.9300 2.0900   50.4520
45.9300 2.1100   50.4608
45.9300 2.1300   50.4641
45.9300 2.1500   50.4666
45.9300 2.1700   50.4713
45.9300 2.1900   50.4838
45.9300 2.2100   50.5053
45.9300 2.2300   50.5204
45.9300 2.2500   50.5362
45.9300 2.2700   50.5454
45.9300 2.2900   50.5511
45.9300 2.3100   50.5742
45.9300 2.3300   50.5891
45.9300 2.3500   50.6105
45.9300 2.3700   50.6168
45.9300 2.3900   50.6369
45.9300 2.4100   50.6526
45.9300 2.4300   50.6666
45.9300 2.4500   50.6893
45.9300 2.4700   50.6973
45.9300 2.4900   50.7060
45.9300 2.5100   50.7164
45.9300 2.5300   50.7298
45.9300 2.5500   50.7384
45.9300 2.5700   50.7462
45.9300 2.5900   50.7615
45.9300 2.6100   50.7723
45.9300 2.6300   50.7748
45.9300 2.6500   50.7725
45.9300 2.6700   50.7694
45.9300 2.6900   50.7687
45.9300 2.7100   50.7699
45.9300 2.7300   50.7813
45.9300 2.7500   50.7890
45.9300 2.7700   50.7822
45.9300 2.7900   50.7966
45.9300 2.8100   50.8140
45.9300 2.8300   50.8222
45.9300 2.8500   50.8278
45.9300 2.8700   50.8269
45.9300 2.8900   50.8270
45.9300 2.9100   50.8378
45.9300 2.9300   50.8355
45.9300 2.9500   50.8192
45.9300 2.9700   50.7895
45.9300 2.9900   50.7483
45.9300 3.0100   50.7078
45.9300 3.0300   50.6558
45.9300 3.0500   50.5889
45.9300 3.0700   50.5108
45.9300 3.0900   50.4320
45.9300 3.1100   50.3764
45.9300 3.1300   50.3260
45.9300 3.1500   50.2924
45.9300 3.1700   50.2639
45.9300 3.1900   50.2457
45.9300 3.2100   50.2330
45.9300 3.2300   50.2210
45.9300 3.2500   50.2122
45.9300 3.2700   50.2053
45.9300 3.2900   50.2048
45.9300 3.3100   50.2099
45.9300 3.3300   50.2199
45.9300 3.3500   50.2313
45.9300 3.3700   50.2478
45.9300 3.3900   50.2679
45.9300 3.4100   50.2959
45.9300 3.4300   50.3178
45.9300 3.4500   50.3477
45.9300 3.4700   50.3903
45.9300 3.4900   50.4412
45.9300 3.5100   50.5016
45.9300 3.5300   50.5796
45.9300 3.5500   50.6704
45.9300 3.5700   50.7470
45.9300 3.5900   50.8154
45.9300 3.6100   50.8720
45.9300 3.6300   50.9283
45.9300 3.6500   50.9811
45.9300 3.6700   51.0376
45.9300 3.6900   51.1090
45.9300 3.7100   51.1251
45.9300 3.7300   51.1216
45.9300 3.7500   51.0992
45.9300 3.7700   51.0620
45.9300 3.7900   51.0393
45.9300 3.8100   51.0369
45.9300 3.8300   51.0328
45.9300 3.8500   51.0295
45.9300 3.8700   51.0208
45.9300 3.8900   50.9842
45.9300 3.9100   50.9555
45.9300 3.9300   50.9019
45.9300 3.9500   50.8547
45.9300 3.9700   50.8153
45.9300 3.9900   50.7695
45.9300 4.0100   50.7369
45.9300 4.0300   50.7093
45.9300 4.0500   50.7044
45.9300 4.0700   50.7042
45.9300 4.0900   50.6961
45.9300 4.1100   50.6947
45.9300 4.1300   50.6985
45.9300 4.1500   50.7040
45.9300 4.1700   50.7159
45.9300 4.1900   50.7053
45.9300 4.2100   50.7027
45.9300 4.2300   50.7124
45.9300 4.2500   50.7273
45.9300 4.2700   50.7449
45.9300 4.2900   50.7729
45.9300 4.3100   50.7985
45.9300 4.3300   50.8216
45.9300 4.3500   50.8236
45.9300 4.3700   50.8334
45.9300 4.3900   50.8434
45.9300 4.4100   50.8197
45.9300 4.4300   50.7955
45.9300 4.4500   50.7665
45.9300 4.4700   50.7501
45.9300 4.4900   50.7285
45.9500 1.5100   49.4782
45.9500 1.5300   49.5122
45.9500 1.5500   49.5544
45.9500 1.5700   49.5901
45.9500 1.5900   49.6190
45.9500 1.6100   49.6564
45.9500 1.6300   49.6924
45.9500 1.6500   49.7336
45.9500 1.6700   49.7800
45.9500 1.6900   49.8251
45.9500 1.7100   49.8648
45.9500 1.7300   49.8971
45.9500 1.7500   49.9278
45.9500 1.7700   49.9829
45.9500 1.7900   50.0269
45.9500 1.8100   50.0717
45.9500 1.8300   50.1230
45.9500 1.8500   50.1555
45.9500 1.8700   50.1746
45.9500 1.8900   50.1786
45.9500 1.9100   50.1958
45.9500 1.9300   50.2151
45.9500 1.9500   50.2405
45.9500 1.9700   50.2713
45.9500 1.9900   50.2984
45.9500 2.0100   50.3252
45.9500 2.0300   50.3479
45.9500 2.0500   50.3681
45.9500 2.0700   50.3889
45.9500 2.0900   50.3994
45.9500 2.1100   50.4088
45.9500 2.1300   50.4085
45.9500 2.1500   50.4068
45.9500 2.1700   50.4060
45.9500 2.1900   50.4249
45.9500 2.2100   50.4456
45.9500 2.2300   50.4632
45.9500 2.2500   50.4816
45.9500 2.2700   50.4840
45.9500 2.2900   50.4844
45.9500 2.3100   50.4959
45.9500 2.3300   50.5197
45.9500 2.3500   50.5377
45.9500 2.3700   50.5547
45.9500 2.3900   50.5701
45.9500 2.4100   50.5874
45.9500 2.4300   50.6058
45.9500 2.4500   50.6216
45.9500 2.4700   50.6323
45.9500 2.4900   50.6418
45.9500 2.5100   50.6604
45.9500 2.5300   50.6689
45.9500 2.5500   50.6791
45.9500 2.5700   50.6930
45.9500 2.5900   50.7057
45.9500 2.6100   50.7123
45.9500 2.6300   50.7196
45.9500 2.6500   50.7207
45.9500 2.6700   50.7171
45.9500 2.6900   50.7186
45.9500 2.7100   50.7164
45.9500 2.7300   50.7210
45.9500 2.7500   50.7253
45.9500 2.7700   50.7208
45.9500 2.7900   50.7228
45.9500 2.8100   50.7313
45.9500 2.8300   50.7450
45.9500 2.8500   50.7487
45.9500 2.8700   50.7475
45.9500 2.8900   50.7355
45.9500 2.9100   50.7280
45.9500 2.9300   50.7271
45.9500 2.9500   50.7155
45.9500 2.9700   50.6991
45.9500 2.9900   50.6667
45.9500 3.0100   50.6332
45.9500 3.0300   50.5869
45.9500 3.0500   50.5312
45.9500 3.0700   50.4653
45.9500 3.0900   50.3973
45.9500 3.1100   50.3412
45.9500 3.1300   50.2886
45.9500 3.1500   50.2462
45.9500 3.1700   50.2136
45.9500 3.1900   50.1908
45.9500 3.2100   50.1747
45.9500 3.2300   50.1630
45.9500 3.2500   50.1512
45.9500 3.2700   50.1438
45.9500 3.2900   50.1421
45.9500 3.3100   50.1466
45.9500 3.3300   50.1606
45.9500 3.3500   50.1745
45.9500 3.3700   50.1844
45.9500 3.3900   50.2018
45.9500 3.4100   50.2221
45.9500 3.4300   50.2474
45.9500 3.4500   50.2783
45.9500 3.4700   50.3187
45.9500 3.4900   50.3654
45.9500 3.5100   50.4261
45.9500 3.5300   50.5151
45.9500 3.5500   50.5848
45.9500 3.5700   50.6498
45.9500 3.5900   50.7241
45.9500 3.6100   50.7944
45.9500 3.6300   50.8583
45.9500 3.6500   50.9211
45.9500 3.6700   50.9917
45.9500 3.6900   51.0119
45.9500 3.7100   51.0174
45.9500 3.7300   51.0116
45.9500 3.7500   50.9947
45.9500 3.7700   50.9777
45.9500 3.7900   50.9695
45.9500 3.8100   50.9766
45.9500 3.8300   50.9978
45.9500 3.8500   50.9911
45.9500 3.8700   50.9744
45.9500 3.8900   50.9294
45.9500 3.9100   50.8851
45.9500 3.9300   50.8372
45.9500 3.9500   50.7985
45.9500 3.9700   50.7367
45.9500 3.9900   50.6850
45.9500 4.0100   50.6545
45.9500 4.0300   50.6350
45.9500 4.0500   50.6357
45.9500 4.0700   50.6417
45.9500 4.0900   50.6383
45.9500 4.1100   50.6291
45.9500 4.1300   50.6202
45.9500 4.1500   50.6317
45.9500 4.1700   50.6386
45.9500 4.1900   50.6320
45.9500 4.2100   50.6419
45.9500 4.2300   50.6560
45.9500 4.2500   50.6717
45.9500 4.2700   50.6899
45.9500 4.2900   50.7129
45.9500 4.3100   50.7309
45.9500 4.3300   50.7444
45.9500 4.3500   50.7566
45.9500 4.3700   50.7835
45.9500 4.3900   50.8098
45.9500 4.4100   50.7877
45.9500 4.4300   50.7649
45.9500 4.4500   50.7643
45.9500 4.4700   50.7407
45.9500 4.4900   50.7278
45.9700 1.5100   49.4521
45.9700 1.5300   49.4857
45.9700 1.5500   49.5172
45.9700 1.5700   49.5494
45.9700 1.5900   49.5895
45.9700 1.6100   49.6317
45.9700 1.6300   49.6705
45.9700 1.6500   49.7129
45.9700 1.6700   49.7548
45.9700 1.6900   49.7958
45.9700 1.7100   49.8162
45.9700 1.7300   49.8451
45.9700 1.7500   49.8808
45.9700 1.7700   49.9320
45.9700 1.7900   49.9874
45.9700 1.8100   50.0224
45.9700 1.8300   50.0543
45.9700 1.8500   50.0910
45.9700 1.8700   50.1046
45.9700 1.8900   50.1257
45.9700 1.9100   50.1446
45.9700 1.9300   50.1775
45.9700 1.9500   50.2111
45.9700 1.9700   50.2398
45.9700 1.9900   50.2610
45.9700 2.0100   50.2811
45.9700 2.0300   50.2929
45.9700 2.0500   50.3029
45.9700 2.0700   50.3177
45.9700 2.0900   50.3295
45.9700 2.1100   50.3401
45.9700 2.1300   50.3472
45.9700 2.1500   50.3403
45.9700 2.1700   50.3488
45.9700 2.1900   50.3633
45.9700 2.2100   50.3842
45.9700 2.2300   50.4059
45.9700 2.2500   50.4189
45.9700 2.2700   50.4266
45.9700 2.2900   50.4315
45.9700 2.3100   50.4321
45.9700 2.3300   50.4466
45.9700 2.3500   50.4647
45.9700 2.3700   50.4954
45.9700 2.3900   50.5125
45.9700 2.4100   50.5257
45.9700 2.4300   50.5431
45.9700 2.4500   50.5564
45.9700 2.4700   50.5620
45.9700 2.4900   50.5703
45.9700 2.5100   50.5887
45.9700 2.5300   50.6033
45.9700 2.5500   50.6203
45.9700 2.5700   50.6322
45.9700 2.5900   50.6442
45.9700 2.6100   50.6516
45.9700 2.6300   50.6634
45.9700 2.6500   50.6674
45.9700 2.6700   50.6649
45.9700 2.6900   50.6728
45.9700 2.7100   50.6676
45.9700 2.7300   50.6618
45.9700 2.7500   50.6635
45.9700 2.7700   50.6552
45.9700 2.7900   50.6460
45.9700 2.8100   50.6466
45.9700 2.8300   50.6619
45.9700 2.8500   50.6501
45.9700 2.8700   50.6514
45.9700 2.8900   50.6560
45.9700 2.9100   50.6419
45.9700 2.9300   50.6199
45.9700 2.9500   50.6054
45.9700 2.9700   50.5953
45.9700 2.9900   50.5812
45.9700 3.0100   50.5562
45.9700 3.0300   50.5157
45.9700 3.0500   50.4680
45.9700 3.0700   50.4126
45.9700 3.0900   50.3575
45.9700 3.1100   50.3004
45.9700 3.1300   50.2544
45.9700 3.1500   50.2116
45.9700 3.1700   50.1780
45.9700 3.1900   50.1481
45.9700 3.2100   50.1275
45.9700 3.2300   50.1118
45.9700 3.2500   50.0986
45.9700 3.2700   50.0894
45.9700 3.2900   50.0842
45.9700 3.3100   50.0874
45.9700 3.3300   50.0979
45.9700 3.3500   50.1174
45.9700 3.3700   50.1347
45.9700 3.3900   50.1457
45.9700 3.4100   50.1612
45.9700 3.4300   50.1863
45.9700 3.4500   50.2162
45.9700 3.4700   50.2528
45.9700 3.4900   50.3050
45.9700 3.5100   50.3639
45.9700 3.5300   50.4414
45.9700 3.5500   50.5177
45.9700 3.5700   50.5820
45.9700 3.5900   50.6550
45.9700 3.6100   50.7240
45.9700 3.6300   50.7734
45.9700 3.6500   50.8252
45.9700 3.6700   50.8717
45.9700 3.6900   50.8844
45.9700 3.7100   50.8919
45.9700 3.7300   50.8941
45.9700 3.7500   50.8825
45.9700 3.7700   50.8946
45.9700 3.7900   50.9194
45.9700 3.8100   50.9374
45.9700 3.8300   50.9432
45.9700 3.8500   50.9319
45.9700 3.8700   50.9104
45.9700 3.8900   50.8576
45.9700 3.9100   50.8065
45.9700 3.9300   50.7665
45.9700 3.9500   50.6977
45.9700 3.9700   50.6359
45.9700 3.9900   50.5974
45.9700 4.0100   50.5697
45.9700 4.0300   50.5571
45.9700 4.0500   50.5503
45.9700 4.0700   50.5510
45.9700 4.0900   50.5441
45.9700 4.1100   50.5348
45.9700 4.1300   50.5346
45.9700 4.1500   50.5414
45.9700 4.1700   50.5506
45.9700 4.1900   50.5640
45.9700 4.2100   50.5772
45.9700 4.2300   50.5973
45.9700 4.2500   50.6198
45.9700 4.2700   50.6292
45.9700 4.2900   50.6483
45.9700 4.3100   50.6566
45.9700 4.3300   50.6685
45.9700 4.3500   50.6955
45.9700 4.3700   50.7237
45.9700 4.3900   50.7566
45.9700 4.4100   50.7610
45.9700 4.4300   50.7627
45.9700 4.4500   50.7609
45.9700 4.4700   50.7272
45.9700 4.4900   50.6913
45.9900 1.5100   49.4282
45.9900 1.5300   49.4632
45.9900 1.5500   49.4925
45.9900 1.5700   49.5211
45.9900 1.5900   49.5546
45.9900 1.6100   49.5895
45.9900 1.6300   49.6368
45.9900 1.6500   49.6885
45.9900 1.6700   49.7298
45.9900 1.6900   49.7483
45.9900 1.7100   49.7698
45.9900 1.7300   49.8054
45.9900 1.7500   49.8471
45.9900 1.7700   49.8832
45.9900 1.7900   49.9383
45.9900 1.8100   49.9661
45.9900 1.8300   49.9921
45.9900 1.8500   50.0235
45.9900 1.8700   50.0494
45.9900 1.8900   50.0814
45.9900 1.9100   50.1100
45.9900 1.9300   50.1387
45.9900 1.9500   50.1614
45.9900 1.9700   50.1818
45.9900 1.9900   50.2023
45.9900 2.0100   50.2172
45.9900 2.0300   50.2357
45.9900 2.0500   50.2435
45.9900 2.0700   50.2494
45.9900 2.0900   50.2640
45.9900 2.1100   50.2653
45.9900 2.1300   50.2693
45.9900 2.1500   50.2698
45.9900 2.1700   50.2879
45.9900 2.1900   50.3089
45.9900 2.2100   50.3258
45.9900 2.2300   50.3432
45.9900 2.2500   50.3518
45.9900 2.2700   50.3565
45.9900 2.2900   50.3663
45.9900 2.3100   50.3737
45.9900 2.3300   50.3744
45.9900 2.3500   50.3980
45.9900 2.3700   50.4200
45.9900 2.3900   50.4420
45.9900 2.4100   50.4633
45.9900 2.4300   50.4752
45.9900 2.4500   50.4821
45.9900 2.4700   50.4941
45.9900 2.4900   50.5073
45.9900 2.5100   50.5153
45.9900 2.5300   50.5347
45.9900 2.5500   50.5452
45.9900 2.5700   50.5625
45.9900 2.5900   50.5790
45.9900 2.6100   50.5980
45.9900 2.6300   50.6059
45.9900 2.6500   50.6055
45.9900 2.6700   50.6109
45.9900 2.6900   50.6187
45.9900 2.7100   50.6112
45.9900 2.7300   50.6057
45.9900 2.7500   50.5984
45.9900 2.7700   50.5942
45.9900 2.7900   50.5959
45.9900 2.8100   50.5883
45.9900 2.8300   50.5757
45.9900 2.8500   50.5789
45.9900 2.8700   50.5697
45.9900 2.8900   50.5634
45.9900 2.9100   50.5611
45.9900 2.9300   50.5483
45.9900 2.9500   50.5282
45.9900 2.9700   50.5024
45.9900 2.9900   50.4911
45.9900 3.0100   50.4721
45.9900 3.0300   50.4438
45.9900 3.0500   50.4011
45.9900 3.0700   50.3472
45.9900 3.0900   50.2890
45.9900 3.1100   50.2535
45.9900 3.1300   50.2208
45.9900 3.1500   50.1797
45.9900 3.1700   50.1414
45.9900 3.1900   50.1164
45.9900 3.2100   50.0887
45.9900 3.2300   50.0668
45.9900 3.2500   50.0496
45.9900 3.2700   50.0367
45.9900 3.2900   50.0312
45.9900 3.3100   50.0316
45.9900 3.3300   50.0373
45.9900 3.3500   50.0494
45.9900 3.3700   50.0654
45.9900 3.3900   50.0817
45.9900 3.4100   50.1021
45.9900 3.4300   50.1252
45.9900 3.4500   50.1554
45.9900 3.4700   50.1900
45.9900 3.4900   50.2376
45.9900 3.5100   50.2997
45.9900 3.5300   50.3750
45.9900 3.5500   50.4288
45.9900 3.5700   50.4927
45.9900 3.5900   50.5593
45.9900 3.6100   50.6035
45.9900 3.6300   50.6596
45.9900 3.6500   50.7001
45.9900 3.6700   50.7472
45.9900 3.6900   50.7699
45.9900 3.7100   50.8053
45.9900 3.7300   50.7998
45.9900 3.7500   50.7826
45.9900 3.7700   50.8094
45.9900 3.7900   50.8626
45.9900 3.8100   50.8801
45.9900 3.8300   50.8768
45.9900 3.8500   50.8697
45.9900 3.8700   50.8161
45.9900 3.8900   50.7777
45.9900 3.9100   50.7294
45.9900 3.9300   50.6633
45.9900 3.9500   50.5871
45.9900 3.9700   50.5374
45.9900 3.9900   50.5077
45.9900 4.0100   50.4929
45.9900 4.0300   50.4748
45.9900 4.0500   50.4621
45.9900 4.0700   50.4588
45.9900 4.0900   50.4498
45.9900 4.1100   50.4473
45.9900 4.1300   50.4578
45.9900 4.1500   50.4731
45.9900 4.1700   50.4902
45.9900 4.1900   50.5033
45.9900 4.2100   50.5161
45.9900 4.2300   50.5359
45.9900 4.2500   50.5573
45.9900 4.2700   50.5682
45.9900 4.2900   50.5853
45.9900 4.3100   50.6010
45.9900 4.3300   50.6196
45.9900 4.3500   50.6405
45.9900 4.3700   50.6648
45.9900 4.3900   50.6932
45.9900 4.4100   50.7343
45.9900 4.4300   50.7262
45.9900 4.4500   50.7044
45.9900 4.4700   50.6803
45.9900 4.4900   50.6356
46.0100 1.5100   49.4039
46.0100 1.5300   49.4437
46.0100 1.5500   49.4745
46.0100 1.5700   49.5064
46.0100 1.5900   49.5366
46.0100 1.6100   49.5655
46.0100 1.6300   49.6094
46.0100 1.6500   49.6432
46.0100 1.6700   49.6650
46.0100 1.6900   49.6952
46.0100 1.7100   49.7301
46.0100 1.7300   49.7681
46.0100 1.7500   49.8091
46.0100 1.7700   49.8516
46.0100 1.7900   49.8902
46.0100 1.8100   49.9247
46.0100 1.8300   49.9543
46.0100 1.8500   49.9885
46.0100 1.8700   50.0207
46.0100 1.8900   50.0480
46.0100 1.9100   50.0730
46.0100 1.9300   50.0892
46.0100 1.9500   50.1080
46.0100 1.9700   50.1236
46.0100 1.9900   50.1397
46.0100 2.0100   50.1579
46.0100 2.0300   50.1746
46.0100 2.0500   50.1770
46.0100 2.0700   50.1785
46.0100 2.0900   50.1794
46.0100 2.1100   50.1856
46.0100 2.1300   50.1870
46.0100 2.1500   50.2053
46.0100 2.1700   50.2295
46.0100 2.1900   50.2529
46.0100 2.2100   50.2648
46.0100 2.2300   50.2702
46.0100 2.2500   50.2843
46.0100 2.2700   50.2928
46.0100 2.2900   50.2909
46.0100 2.3100   50.3012
46.0100 2.3300   50.3081
46.0100 2.3500   50.3308
46.0100 2.3700   50.3552
46.0100 2.3900   50.3758
46.0100 2.4100   50.3974
46.0100 2.4300   50.4092
46.0100 2.4500   50.4147
46.0100 2.4700   50.4249
46.0100 2.4900   50.4362
46.0100 2.5100   50.4471
46.0100 2.5300   50.4531
46.0100 2.5500   50.4719
46.0100 2.5700   50.4876
46.0100 2.5900   50.5018
46.0100 2.6100   50.5208
46.0100 2.6300   50.5358
46.0100 2.6500   50.5433
46.0100 2.6700   50.5546
46.0100 2.6900   50.5579
46.0100 2.7100   50.5557
46.0100 2.7300   50.5513
46.0100 2.7500   50.5390
46.0100 2.7700   50.5355
46.0100 2.7900   50.5395
46.0100 2.8100   50.5423
46.0100 2.8300   50.5369
46.0100 2.8500   50.5279
46.0100 2.8700   50.5108
46.0100 2.8900   50.4782
46.0100 2.9100   50.4763
46.0100 2.9300   50.4779
46.0100 2.9500   50.4683
46.0100 2.9700   50.4461
46.0100 2.9900   50.4157
46.0100 3.0100   50.3926
46.0100 3.0300   50.3680
46.0100 3.0500   50.3306
46.0100 3.0700   50.2760
46.0100 3.0900   50.2327
46.0100 3.1100   50.2055
46.0100 3.1300   50.1880
46.0100 3.1500   50.1666
46.0100 3.1700   50.1194
46.0100 3.1900   50.0836
46.0100 3.2100   50.0499
46.0100 3.2300   50.0221
46.0100 3.2500   50.0028
46.0100 3.2700   49.9865
46.0100 3.2900   49.9807
46.0100 3.3100   49.9804
46.0100 3.3300   49.9889
46.0100 3.3500   50.0068
46.0100 3.3700   50.0169
46.0100 3.3900   50.0352
46.0100 3.4100   50.0507
46.0100 3.4300   50.0693
46.0100 3.4500   50.0937
46.0100 3.4700   50.1269
46.0100 3.4900   50.1739
46.0100 3.5100   50.2444
46.0100 3.5300   50.3156
46.0100 3.5500   50.3677
46.0100 3.5700   50.4177
46.0100 3.5900   50.4568
46.0100 3.6100   50.5016
46.0100 3.6300   50.5528
46.0100 3.6500   50.5993
46.0100 3.6700   50.6325
46.0100 3.6900   50.6671
46.0100 3.7100   50.6964
46.0100 3.7300   50.6759
46.0100 3.7500   50.6802
46.0100 3.7700   50.7189
46.0100 3.7900   50.7725
46.0100 3.8100   50.7922
46.0100 3.8300   50.7842
46.0100 3.8500   50.7486
46.0100 3.8700   50.6891
46.0100 3.8900   50.6698
46.0100 3.9100   50.6132
46.0100 3.9300   50.5377
46.0100 3.9500   50.4785
46.0100 3.9700   50.4418
46.0100 3.9900   50.4179
46.0100 4.0100   50.4018
46.0100 4.0300   50.3878
46.0100 4.0500   50.3727
46.0100 4.0700   50.3631
46.0100 4.0900   50.3576
46.0100 4.1100   50.3674
46.0100 4.1300   50.3944
46.0100 4.1500   50.4125
46.0100 4.1700   50.4364
46.0100 4.1900   50.4543
46.0100 4.2100   50.4707
46.0100 4.2300   50.4874
46.0100 4.2500   50.4978
46.0100 4.2700   50.5119
46.0100 4.2900   50.5396
46.0100 4.3100   50.5704
46.0100 4.3300   50.5969
46.0100 4.3500   50.6040
46.0100 4.3700   50.6112
46.0100 4.3900   50.6348
46.0100 4.4100   50.6678
46.0100 4.4300   50.6723
46.0100 4.4500   50.6408
46.0100 4.4700   50.6179
46.0100 4.4900   50.5929
46.0300 1.5100   49.3855
46.0300 1.5300   49.4345
46.0300 1.5500   49.4752
46.0300 1.5700   49.5083
46.0300 1.5900   49.5274
46.0300 1.6100   49.5528
46.0300 1.6300   49.5729
46.0300 1.6500   49.6003
46.0300 1.6700   49.6302
46.0300 1.6900   49.6608
46.0300 1.7100   49.6950
46.0300 1.7300   49.7353
46.0300 1.7500   49.7905
46.0300 1.7700   49.8353
46.0300 1.7900   49.8713
46.0300 1.8100   49.8987
46.0300 1.8300   49.9265
46.0300 1.8500   49.9599
46.0300 1.8700   49.9971
46.0300 1.8900   50.0141
46.0300 1.9100   50.0278
46.0300 1.9300   50.0397
46.0300 1.9500   50.0589
46.0300 1.9700   50.0701
46.0300 1.9900   50.0833
46.0300 2.0100   50.0907
46.0300 2.0300   50.1003
46.0300 2.0500   50.0999
46.0300 2.0700   50.0973
46.0300 2.0900   50.1000
46.0300 2.1100   50.1006
46.0300 2.1300   50.1112
46.0300 2.1500   50.1363
46.0300 2.1700   50.1595
46.0300 2.1900   50.1803
46.0300 2.2100   50.1915
46.0300 2.2300   50.1955
46.0300 2.2500   50.2039
46.0300 2.2700   50.2122
46.0300 2.2900   50.2172
46.0300 2.3100   50.2242
46.0300 2.3300   50.2383
46.0300 2.3500   50.2604
46.0300 2.3700   50.2829
46.0300 2.3900   50.3068
46.0300 2.4100   50.3297
46.0300 2.4300   50.3465
46.0300 2.4500   50.3580
46.0300 2.4700   50.3612
46.0300 2.4900   50.3652
46.0300 2.5100   50.3687
46.0300 2.5300   50.3750
46.0300 2.5500   50.3947
46.0300 2.5700   50.4052
46.0300 2.5900   50.4205
46.0300 2.6100   50.4362
46.0300 2.6300   50.4577
46.0300 2.6500   50.4789
46.0300 2.6700   50.4954
46.0300 2.6900   50.5025
46.0300 2.7100   50.4978
46.0300 2.7300   50.4992
46.0300 2.7500   50.4905
46.0300 2.7700   50.4853
46.0300 2.7900   50.4863
46.0300 2.8100   50.4945
46.0300 2.8300   50.4877
46.0300 2.8500   50.4753
46.0300 2.8700   50.4526
46.0300 2.8900   50.4137
46.0300 2.9100   50.4042
46.0300 2.9300   50.4167
46.0300 2.9500   50.4130
46.0300 2.9700   50.3947
46.0300 2.9900   50.3666
46.0300 3.0100   50.3306
46.0300 3.0300   50.2945
46.0300 3.0500   50.2572
46.0300 3.0700   50.2190
46.0300 3.0900   50.1865
46.0300 3.1100   50.1690
46.0300 3.1300   50.1506
46.0300 3.1500   50.1318
46.0300 3.1700   50.0967
46.0300 3.1900   50.0544
46.0300 3.2100   50.0281
46.0300 3.2300   49.9937
46.0300 3.2500   49.9675
46.0300 3.2700   49.9484
46.0300 3.2900   49.9416
46.0300 3.3100   49.9441
46.0300 3.3300   49.9523
46.0300 3.3500   49.9622
46.0300 3.3700   49.9713
46.0300 3.3900   49.9819
46.0300 3.4100   49.9957
46.0300 3.4300   50.0132
46.0300 3.4500   50.0342
46.0300 3.4700   50.0668
46.0300 3.4900   50.1149
46.0300 3.5100   50.1860
46.0300 3.5300   50.2493
46.0300 3.5500   50.2981
46.0300 3.5700   50.3330
46.0300 3.5900   50.3580
46.0300 3.6100   50.4096
46.0300 3.6300   50.4520
46.0300 3.6500   50.4899
46.0300 3.6700   50.5452
46.0300 3.6900   50.5789
46.0300 3.7100   50.5715
46.0300 3.7300   50.5702
46.0300 3.7500   50.5944
46.0300 3.7700   50.6352
46.0300 3.7900   50.6710
46.0300 3.8100   50.6885
46.0300 3.8300   50.6529
46.0300 3.8500   50.6069
46.0300 3.8700   50.5683
46.0300 3.8900   50.5585
46.0300 3.9100   50.4911
46.0300 3.9300   50.4239
46.0300 3.9500   50.3758
46.0300 3.9700   50.3459
46.0300 3.9900   50.3278
46.0300 4.0100   50.3107
46.0300 4.0300   50.2978
46.0300 4.0500   50.2855
46.0300 4.0700   50.2794
46.0300 4.0900   50.2802
46.0300 4.1100   50.2952
46.0300 4.1300   50.3198
46.0300 4.1500   50.3414
46.0300 4.1700   50.3713
46.0300 4.1900   50.3883
46.0300 4.2100   50.4139
46.0300 4.2300   50.4410
46.0300 4.2500   50.4641
46.0300 4.2700   50.4730
46.0300 4.2900   50.4882
46.0300 4.3100   50.5243
46.0300 4.3300   50.5651
46.0300 4.3500   50.5743
46.0300 4.3700   50.6002
46.0300 4.3900   50.5924
46.0300 4.4100   50.6192
46.0300 4.4300   50.6342
46.0300 4.4500   50.6090
46.0300 4.4700   50.5861
46.0300 4.4900   50.5624
46.0500 1.5100   49.3648
46.0500 1.5300   49.4070
46.0500 1.5500   49.4433
46.0500 1.5700   49.4746
46.0500 1.5900   49.4914
46.0500 1.6100   49.5159
46.0500 1.6300   49.5429
46.0500 1.6500   49.5711
46.0500 1.6700   49.6014
46.0500 1.6900   49.6288
46.0500 1.7100   49.6624
46.0500 1.7300   49.6994
46.0500 1.7500   49.7477
46.0500 1.7700   49.7925
46.0500 1.7900   49.8268
46.0500 1.8100   49.8715
46.0500 1.8300   49.9019
46.0500 1.8500   49.9235
46.0500 1.8700   49.9423
46.0500 1.8900   49.9644
46.0500 1.9100   49.9762
46.0500 1.9300   49.9905
46.0500 1.9500   50.0055
46.0500 1.9700   50.0126
46.0500 1.9900   50.0152
46.0500 2.0100   50.0160
46.0500 2.0300   50.0198
46.0500 2.0500   50.0163
46.0500 2.0700   50.0148
46.0500 2.0900   50.0131
46.0500 2.1100   50.0212
46.0500 2.1300   50.0468
46.0500 2.1500   50.0777
46.0500 2.1700   50.0997
46.0500 2.1900   50.1125
46.0500 2.2100   50.1143
46.0500 2.2300   50.1197
46.0500 2.2500   50.1255
46.0500 2.2700   50.1349
46.0500 2.2900   50.1428
46.0500 2.3100   50.1505
46.0500 2.3300   50.1698
46.0500 2.3500   50.1942
46.0500 2.3700   50.2200
46.0500 2.3900   50.2349
46.0500 2.4100   50.2579
46.0500 2.4300   50.2753
46.0500 2.4500   50.2790
46.0500 2.4700   50.2902
46.0500 2.4900   50.2907
46.0500 2.5100   50.2925
46.0500 2.5300   50.3017
46.0500 2.5500   50.3143
46.0500 2.5700   50.3248
46.0500 2.5900   50.3469
46.0500 2.6100   50.3695
46.0500 2.6300   50.3892
46.0500 2.6500   50.4008
46.0500 2.6700   50.4175
46.0500 2.6900   50.4303
46.0500 2.7100   50.4397
46.0500 2.7300   50.4391
46.0500 2.7500   50.4438
46.0500 2.7700   50.4346
46.0500 2.7900   50.4335
46.0500 2.8100   50.4380
46.0500 2.8300   50.4351
46.0500 2.8500   50.4256
46.0500 2.8700   50.3975
46.0500 2.8900   50.3700
46.0500 2.9100   50.3545
46.0500 2.9300   50.3547
46.0500 2.9500   50.3550
46.0500 2.9700   50.3387
46.0500 2.9900   50.3175
46.0500 3.0100   50.2902
46.0500 3.0300   50.2557
46.0500 3.0500   50.2084
46.0500 3.0700   50.1738
46.0500 3.0900   50.1516
46.0500 3.1100   50.1355
46.0500 3.1300   50.1070
46.0500 3.1500   50.0798
46.0500 3.1700   50.0514
46.0500 3.1900   50.0108
46.0500 3.2100   49.9836
46.0500 3.2300   49.9628
46.0500 3.2500   49.9409
46.0500 3.2700   49.9140
46.0500 3.2900   49.9032
46.0500 3.3100   49.9024
46.0500 3.3300   49.9033
46.0500 3.3500   49.9060
46.0500 3.3700   49.9179
46.0500 3.3900   49.9287
46.0500 3.4100   49.9402
46.0500 3.4300   49.9577
46.0500 3.4500   49.9803
46.0500 3.4700   50.0163
46.0500 3.4900   50.0671
46.0500 3.5100   50.1358
46.0500 3.5300   50.1835
46.0500 3.5500   50.2197
46.0500 3.5700   50.2390
46.0500 3.5900   50.2748
46.0500 3.6100   50.3152
46.0500 3.6300   50.3589
46.0500 3.6500   50.3948
46.0500 3.6700   50.4276
46.0500 3.6900   50.4521
46.0500 3.7100   50.4569
46.0500 3.7300   50.4885
46.0500 3.7500   50.5289
46.0500 3.7700   50.5547
46.0500 3.7900   50.5897
46.0500 3.8100   50.5963
46.0500 3.8300   50.5464
46.0500 3.8500   50.4930
46.0500 3.8700   50.4631
46.0500 3.8900   50.4291
46.0500 3.9100   50.3738
46.0500 3.9300   50.3203
46.0500 3.9500   50.2845
46.0500 3.9700   50.2613
46.0500 3.9900   50.2452
46.0500 4.0100   50.2326
46.0500 4.0300   50.2205
46.0500 4.0500   50.2100
46.0500 4.0700   50.2092
46.0500 4.0900   50.2133
46.0500 4.1100   50.2257
46.0500 4.1300   50.2531
46.0500 4.1500   50.2751
46.0500 4.1700   50.3017
46.0500 4.1900   50.3258
46.0500 4.2100   50.3528
46.0500 4.2300   50.3832
46.0500 4.2500   50.4078
46.0500 4.2700   50.4330
46.0500 4.2900   50.4541
46.0500 4.3100   50.4735
46.0500 4.3300   50.5191
46.0500 4.3500   50.5467
46.0500 4.3700   50.5725
46.0500 4.3900   50.5642
46.0500 4.4100   50.5763
46.0500 4.4300   50.6039
46.0500 4.4500   50.5968
46.0500 4.4700   50.5653
46.0500 4.4900   50.5340
46.0700 1.5100   49.3112
46.0700 1.5300   49.3583
46.0700 1.5500   49.3877
46.0700 1.5700   49.4018
46.0700 1.5900   49.4322
46.0700 1.6100   49.4625
46.0700 1.6300   49.4962
46.0700 1.6500   49.5301
46.0700 1.6700   49.5594
46.0700 1.6900   49.5935
46.0700 1.7100   49.6304
46.0700 1.7300   49.6636
46.0700 1.7500   49.7045
46.0700 1.7700   49.7453
46.0700 1.7900   49.7872
46.0700 1.8100   49.8278
46.0700 1.8300   49.8546
46.0700 1.8500   49.8688
46.0700 1.8700   49.8798
46.0700 1.8900   49.9045
46.0700 1.9100   49.9243
46.0700 1.9300   49.9383
46.0700 1.9500   49.9430
46.0700 1.9700   49.9380
46.0700 1.9900   49.9310
46.0700 2.0100   49.9327
46.0700 2.0300   49.9358
46.0700 2.0500   49.9363
46.0700 2.0700   49.9340
46.0700 2.0900   49.9411
46.0700 2.1100   49.9644
46.0700 2.1300   49.9883
46.0700 2.1500   50.0108
46.0700 2.1700   50.0296
46.0700 2.1900   50.0384
46.0700 2.2100   50.0432
46.0700 2.2300   50.0464
46.0700 2.2500   50.0477
46.0700 2.2700   50.0549
46.0700 2.2900   50.0695
46.0700 2.3100   50.0764
46.0700 2.3300   50.0991
46.0700 2.3500   50.1269
46.0700 2.3700   50.1414
46.0700 2.3900   50.1615
46.0700 2.4100   50.1833
46.0700 2.4300   50.1895
46.0700 2.4500   50.1951
46.0700 2.4700   50.2077
46.0700 2.4900   50.2177
46.0700 2.5100   50.2185
46.0700 2.5300   50.2228
46.0700 2.5500   50.2360
46.0700 2.5700   50.2522
46.0700 2.5900   50.2739
46.0700 2.6100   50.2883
46.0700 2.6300   50.3017
46.0700 2.6500   50.3211
46.0700 2.6700   50.3371
46.0700 2.6900   50.3542
46.0700 2.7100   50.3731
46.0700 2.7300   50.3880
46.0700 2.7500   50.3891
46.0700 2.7700   50.3809
46.0700 2.7900   50.3765
46.0700 2.8100   50.3833
46.0700 2.8300   50.3836
46.0700 2.8500   50.3764
46.0700 2.8700   50.3484
46.0700 2.8900   50.3193
46.0700 2.9100   50.3035
46.0700 2.9300   50.3019
46.0700 2.9500   50.3031
46.0700 2.9700   50.2967
46.0700 2.9900   50.2773
46.0700 3.0100   50.2389
46.0700 3.0300   50.1974
46.0700 3.0500   50.1541
46.0700 3.0700   50.1174
46.0700 3.0900   50.0995
46.0700 3.1100   50.0845
46.0700 3.1300   50.0541
46.0700 3.1500   50.0224
46.0700 3.1700   49.9944
46.0700 3.1900   49.9574
46.0700 3.2100   49.9274
46.0700 3.2300   49.9098
46.0700 3.2500   49.8997
46.0700 3.2700   49.8815
46.0700 3.2900   49.8659
46.0700 3.3100   49.8598
46.0700 3.3300   49.8581
46.0700 3.3500   49.8592
46.0700 3.3700   49.8647
46.0700 3.3900   49.8793
46.0700 3.4100   49.8891
46.0700 3.4300   49.9038
46.0700 3.4500   49.9311
46.0700 3.4700   49.9767
46.0700 3.4900   50.0306
46.0700 3.5100   50.0796
46.0700 3.5300   50.1091
46.0700 3.5500   50.1247
46.0700 3.5700   50.1578
46.0700 3.5900   50.2025
46.0700 3.6100   50.2394
46.0700 3.6300   50.2667
46.0700 3.6500   50.2941
46.0700 3.6700   50.3180
46.0700 3.6900   50.3384
46.0700 3.7100   50.3659
46.0700 3.7300   50.4232
46.0700 3.7500   50.4494
46.0700 3.7700   50.4807
46.0700 3.7900   50.4934
46.0700 3.8100   50.5126
46.0700 3.8300   50.4702
46.0700 3.8500   50.4127
46.0700 3.8700   50.3971
46.0700 3.8900   50.3425
46.0700 3.9100   50.2750
46.0700 3.9300   50.2277
46.0700 3.9500   50.1993
46.0700 3.9700   50.1797
46.0700 3.9900   50.1676
46.0700 4.0100   50.1591
46.0700 4.0300   50.1513
46.0700 4.0500   50.1456
46.0700 4.0700   50.1488
46.0700 4.0900   50.1542
46.0700 4.1100   50.1657
46.0700 4.1300   50.1899
46.0700 4.1500   50.2137
46.0700 4.1700   50.2460
46.0700 4.1900   50.2744
46.0700 4.2100   50.2988
46.0700 4.2300   50.3266
46.0700 4.2500   50.3611
46.0700 4.2700   50.3839
46.0700 4.2900   50.4201
46.0700 4.3100   50.4450
46.0700 4.3300   50.4773
46.0700 4.3500   50.5202
46.0700 4.3700   50.5392
46.0700 4.3900   50.5372
46.0700 4.4100   50.5535
46.0700 4.4300   50.5685
46.0700 4.4500   50.5858
46.0700 4.4700   50.5496
46.0700 4.4900   50.5059
46.0900 1.5100   49.2495
46.0900 1.5300   49.2903
46.0900 1.5500   49.3223
46.0900 1.5700   49.3534
46.0900 1.5900   49.3873
46.0900 1.6100   49.4181
46.0900 1.6300   49.4524
46.0900 1.6500   49.4833
46.0900 1.6700   49.5119
46.0900 1.6900   49.5463
46.0900 1.7100   49.5854
46.0900 1.7300   49.6198
46.0900 1.7500   49.6595
46.0900 1.7700   49.6972
46.0900 1.7900   49.7308
46.0900 1.8100   49.7650
46.0900 1.8300   49.7899
46.0900 1.8500   49.7959
46.0900 1.8700   49.8221
46.0900 1.8900   49.8451
46.0900 1.9100   49.8660
46.0900 1.9300   49.8660
46.0900 1.9500   49.8541
46.0900 1.9700   49.8437
46.0900 1.9900   49.8410
46.0900 2.0100   49.8449
